# .PCD v0.7 - Point Cloud Data file format
VERSION 0.7
FIELDS x y z
SIZE 4 4 4
TYPE F F F
COUNT 1 1 1
WIDTH 1118
HEIGHT 1
VIEWPOINT 0 0 0 1 0 0 0
POINTS 1118
DATA ascii
0.357958 0.0491694 -0.3097461
-0.018292 -0.0169086 -0.3417121
-0.005923 -0.012642600000000002 -0.34677410000000003
0.006534 -0.007494600000000001 -0.3518371
0.019432 -0.0024586 -0.3569721
0.40711600000000003 0.2928894 -0.1512471
0.6336170000000001 0.036967400000000004 -0.1965461
0.032008 0.0015844000000000001 -0.3611341
-0.053672 0.1220894 -0.2869741
0.224551 0.2793694 -0.1951311
-0.12013100000000002 0.1876394 -0.2555981
-0.131167 0.1867494 -0.2545641
-0.301952 0.1932394 -0.24021810000000002
-0.313839 0.19102940000000002 -0.2378161
-0.33784200000000003 0.1855594 -0.23177409999999998
-0.11651800000000001 0.2854394 -0.1782241
-0.107473 0.2823794 -0.17497010000000002
0.37380300000000005 0.24107940000000003 -0.23528110000000002
0.363807 0.2421694 -0.23642810000000003
0.271194 -0.0450576 -0.4315371
0.8009040000000001 -0.22827760000000002 -0.015808100000000002
0.23459200000000002 0.2881694 -0.18473610000000001
0.233308 -0.0362556 -0.4408171000000001
0.6094780000000001 -0.0384766 -0.25643910000000003
0.6182210000000001 -0.042234600000000004 -0.2524631
0.304033 0.0081804 -0.38631210000000005
0.14200100000000002 -0.0083236 -0.4303171
0.152617 -0.0081646 -0.4304141000000001
-0.346636 0.7700294000000001 -0.7078841
0.473035 0.2668894 -0.1433461
0.455359 0.2737794 -0.15074410000000002
0.4641390000000001 0.27019940000000003 -0.1471731
0.481978 0.2636894 -0.1400201
0.446214 0.27657940000000003 -0.1538341
0.436764 0.2788294 -0.1562401
0.034339 0.2694794 -0.1620781
0.057196000000000004 0.2723994 -0.1656491
0.068193 0.27324940000000003 -0.1666801
0.07838300000000001 0.2729594 -0.1662761
0.21485500000000002 0.2912594 -0.18795910000000002
0.20377900000000004 0.29168940000000004 -0.1880621
0.18125100000000002 0.2882494 -0.1841761
0.110006 0.2631294 -0.17588610000000002
0.192804 -0.032743600000000005 -0.4449611
0.626631 -0.046723600000000004 -0.24774010000000002
0.634163 -0.05284060000000001 -0.24126409999999998
0.555251 0.19172940000000002 -0.1621611
0.597414 0.17065940000000002 -0.13933310000000002
0.605054 0.1647394 -0.1328291
-0.33436 -0.5294616000000001 -0.16009210000000001
-0.34646400000000005 -0.5326286 -0.1569461
0.131638 0.29423940000000004 -0.1495541
0.6268250000000001 -0.025994600000000003 -0.22955610000000004
0.29462000000000005 0.1005394 -0.3042551
0.044574 0.0056554000000000005 -0.3653031
0.49088000000000004 0.1610294 -0.22925410000000002
0.4641930000000001 0.050339400000000006 -0.3107301
0.641657 -0.058983600000000004 -0.23476810000000004
0.088342 0.019145400000000003 -0.35910010000000003
0.620815 -0.0889756 -0.26363810000000004
0.6041000000000001 -0.07985560000000001 -0.27321710000000005
0.361308 -0.0142126 -0.38246810000000003
0.763782 -0.27873260000000005 -0.08427810000000001
0.298771 0.1790894 -0.2894161
-0.219426 0.26094940000000005 -0.21201810000000001
0.373877 0.2511394 -0.22622010000000004
-0.145463 0.2809694 -0.19349110000000003
-0.044448 0.28040940000000003 -0.1326621
0.535736 0.2347794 -0.12865310000000002
-0.236488 -0.5669076 -0.2059141
0.526054 0.14964940000000002 -0.2168961
-0.100572 -0.5268606 -0.3694271
0.582183 0.1622094 -0.17045310000000002
0.055933000000000004 0.007518400000000001 -0.3670681
-0.524508 -0.1920286 0.1918119
-0.017349 0.1614294 -0.2683631
-0.33682 0.1975494 -0.2242021
0.704192 -0.36470060000000004 -0.1382841
0.649243 -0.0650826 -0.2283231
0.203061 0.30856940000000005 -0.16645310000000002
0.301497 0.2150594 -0.2669881
-0.334865 0.4945194 -0.12242910000000001
-0.32715500000000003 0.4888294 -0.11628110000000001
-0.318259 0.48623940000000004 -0.1131441
-0.308595 0.48458940000000006 -0.11127210000000001
0.505151 -0.0646926 -0.3288961
0.12021599999999999 0.1313394 -0.2970591
-0.07588700000000001 -0.5841656000000001 -0.3948021
0.10959300000000001 0.1312594 -0.2969581
0.178419 0.030220399999999998 -0.37037610000000004
-0.199749 0.1460394 -0.27147910000000003
-0.179653 0.1466794 -0.2729281
-0.051015000000000005 0.1474594 -0.2732991
0.35937 0.1839194 -0.2736401
0.180796 0.1662694 -0.2943291
0.7063740000000001 -0.2569606 -0.0871751
0.61845 -0.1034236 -0.2683081
0.6295980000000001 0.08035940000000001 -0.18260010000000002
0.523579 -0.3416676 -0.3259291
-0.119008 0.20995940000000002 -0.2389821
0.436145 0.09757940000000001 -0.2811571
0.291098 0.2248394 -0.2574751
-0.053162 -0.5048696 -0.3706021
0.015506 0.17355940000000003 -0.2612241
0.168723 0.0824994 -0.3256131
0.42607700000000004 0.0681894 -0.30947110000000005
-0.26547800000000005 0.2540394 -0.2040021
0.39393600000000006 0.1489294 -0.2757281
0.129748 0.008749400000000001 -0.40779410000000005
0.08206000000000001 0.007389400000000001 -0.3869171
0.569266 0.2176094 -0.1099151
-0.286918 -0.5073316 -0.16145710000000002
0.47431200000000007 -0.08370260000000002 -0.34988410000000003
-0.049204 0.16152940000000002 -0.2687621
0.581107 0.14046940000000002 -0.1871071
0.564492 0.14911939999999999 -0.1964751
0.36175 0.21830940000000001 -0.2505981
0.341877 0.2210994 -0.2536181
-0.255048 0.22349940000000001 -0.2324681
0.16700900000000002 0.1401894 -0.3065531
0.779904 -0.2281986 -0.0157451
0.7310190000000001 -0.2804246 -0.08286510000000001
-0.04759 -0.6009216000000001 -0.39606210000000003
0.5790339999999999 -0.0669986 -0.2854751
-0.07902300000000001 0.2357194 -0.2058391
0.499528 0.1572194 -0.22513010000000003
0.119275 0.11915940000000001 -0.3040831
-0.041397 0.12482940000000001 -0.2897951
0.436029 0.0674594 -0.3090511
-0.10912 0.1884694 -0.2565101
-0.182156 0.20060940000000002 -0.24890210000000002
-0.325589 0.18858940000000002 -0.2350681
0.16223100000000001 -0.1016276 -0.47393409999999997
0.332959 -0.027842600000000002 -0.4087361
0.30501500000000004 0.0001304 -0.3977951
0.351849 -0.011980600000000001 -0.3848961
0.12497799999999999 0.2511794 -0.2039021
-0.20251700000000003 -0.24165160000000002 0.32048990000000005
-0.196522 -0.5975806 -0.2767241
0.34658500000000003 0.0477174 -0.30827810000000005
-0.187807 0.2913694 -0.18402410000000002
-0.17677500000000002 0.29202940000000005 -0.1849251
-0.16653400000000002 0.2914394 -0.1843321
0.234373 0.2776694 -0.19338010000000003
0.20459000000000002 -0.0096606 -0.42853310000000006
0.38902600000000004 0.2889294 -0.1671011
-0.389236 0.8533194000000001 -0.6797821000000001
-0.340727 0.7629394 -0.7003721
0.12354000000000001 0.16829940000000002 -0.2762631
0.013294 -0.5944856 -0.3803161
0.067685 0.0099864 -0.3696131
0.07948 0.0123314 -0.37211510000000003
0.090906 0.014174400000000002 -0.37386810000000004
0.10268 0.0166534 -0.3763961
0.114083 0.0183364 -0.37815810000000005
0.125514 0.0200384 -0.37982910000000003
0.080426 0.1360994 -0.30199810000000005
0.39784600000000003 0.17640940000000002 -0.2654811
0.41613900000000004 0.07974940000000001 -0.30212110000000003
0.42638200000000004 0.0793694 -0.3017691
0.41342100000000004 0.05453940000000001 -0.3154031
0.20176500000000003 0.21611940000000002 -0.24741710000000003
0.19314900000000002 0.29039940000000003 -0.18671610000000002
0.16944 0.2858094 -0.18135810000000002
0.047063 0.0007924000000000001 -0.3801541
0.035373 -0.0018836 -0.37756910000000005
0.148181 0.2551094 -0.20846110000000004
0.022922 0.2680194 -0.16026810000000002
0.042832 -0.0371806 -0.4415681
0.364037 0.2526594 -0.2277771
0.35381700000000005 0.2534194 -0.22853910000000002
-0.35795400000000005 -0.5351506 -0.15438010000000002
-0.37093200000000004 -0.5385606000000001 -0.15105210000000002
-0.08921000000000001 0.2867194 -0.15951310000000002
-0.08496700000000001 -0.5696886 -0.38924610000000004
0.10901700000000002 0.1197994 -0.3047231
0.287085 0.0554694 -0.3165501
0.383633 -0.5963116 -0.3052811
0.136882 0.021753400000000003 -0.3815741
0.15710900000000003 0.2921894 -0.1679881
0.500326 0.037822400000000006 -0.2977071
-0.08873700000000001 0.24743940000000003 -0.19813210000000003
-0.07919500000000002 0.2454894 -0.1960151
0.099769 0.020840400000000002 -0.3608391
-0.039292 0.25111940000000005 -0.1817931
-0.028286000000000002 0.2518894 -0.18276610000000001
0.34245600000000004 -0.0096466 -0.3873731
0.48070300000000005 -0.0301106 -0.3254791
-0.006731 0.1304894 -0.29599210000000004
0.193255 0.2502594 -0.2238771
-0.115913 0.2766094 -0.1889261
-0.12534700000000001 0.2788494 -0.19134810000000002
-0.135236 0.2802594 -0.1928031
-0.41774500000000003 0.8481894000000001 -0.6759511
0.101267 0.0642794 -0.32632710000000004
0.7820280000000001 -0.3257526 -0.11705710000000001
0.35066 -0.0347046 -0.40146110000000007
0.222435 0.1852194 -0.2746041
0.516263 -0.053899600000000006 -0.32068110000000005
-0.23123800000000003 -0.6113086000000001 -0.22253610000000001
-0.088949 -0.49251760000000006 -0.3421561
0.412397 0.1436894 -0.2700581
0.242936 0.16391940000000002 -0.2919251
0.090277 0.1347294 -0.3005391
0.519883 0.2154194 -0.1677221
0.027288000000000003 0.17599940000000003 -0.2639331
-0.33706100000000006 0.4809494 -0.1273921
-0.32866100000000004 0.4770394 -0.12291010000000001
-0.31939300000000004 0.4745994 -0.1201991
-0.31008900000000006 0.4718994000000001 -0.1173671
-0.30055200000000004 0.4697494 -0.1151071
-0.29129299999999997 0.4673894 -0.1124361
0.450972 0.1460094 -0.2528511
-0.34898500000000005 0.1943794 -0.2206781
0.265257 0.0050844 -0.40315510000000004
0.651157 0.0707594 -0.15213410000000002
0.202791 0.016924400000000003 -0.39604110000000003
0.585318 0.2077794 -0.09923610000000001
0.6146240000000001 0.1023294 -0.18613010000000002
0.517608 -0.3230566 -0.3253131
0.342411 0.2718094 -0.2081921
0.321583 0.2720494 -0.2084221
0.225271 -0.00030560000000000006 -0.4179431
0.606182 0.1067594 -0.19092910000000002
0.332187 0.27202940000000003 -0.20853310000000003
0.35302300000000003 0.27152940000000003 -0.2081181
0.363244 0.2708494 -0.2074391
0.373092 0.2694794 -0.2059761
0.38291000000000003 0.26802940000000003 -0.20445210000000003
-0.100413 0.16452940000000002 -0.27142510000000003
-0.26563 0.2636694 -0.1939691
0.423306 0.0532194 -0.31414410000000004
-0.37096300000000004 -0.5282436 -0.1401561
-0.358155 -0.5247806 -0.14371810000000002
-0.32186400000000004 -0.5154496000000001 -0.1531161
-0.298325 -0.5098636 -0.15881710000000002
0.46588700000000005 0.2538594 -0.1692011
0.474942 0.2508994 -0.1659991
0.257135 0.21060940000000003 -0.2619261
0.279868 0.2139894 -0.2657031
0.359723 0.1945494 -0.26510310000000004
0.350474 0.1972094 -0.2679011
-0.015414 0.1853994 -0.25360109999999997
0.726078 -0.22806860000000004 -0.0561291
-0.24354900000000002 0.2248294 -0.2339171
0.09726900000000001 -0.0029456 -0.4159831
0.420275 0.2186394 -0.2311651
0.147643 -0.06986360000000001 -0.46728310000000006
0.43581899999999996 0.2868294 -0.1449021
-0.31028900000000004 -0.5130696 -0.15548510000000001
0.127297 0.21635939999999998 -0.2473331
0.13795100000000002 0.21616939999999998 -0.24715810000000002
-0.378482 -0.5016146 -0.0826131
0.310889 0.19236940000000002 -0.2824251
-0.28074499999999997 0.1841094 -0.2510911
0.603936 0.1726794 -0.1213371
0.172441 -0.1035636 -0.4716861
-0.16631200000000002 0.2614794 -0.21299310000000002
-0.05101700000000001 -0.5653836 -0.3930851
-0.343816 -0.5931366 -0.17990810000000002
0.545069 -0.0494836 -0.3049811
-0.017580000000000002 -0.0033636 -0.3357641
-0.22045499999999998 0.2894494 -0.1816511
-0.209006 0.29090940000000004 -0.1834291
-0.198025 0.2917694 -0.18449910000000003
0.790146 -0.3411246 -0.1215571
0.799048 -0.3437316 -0.1182761
0.8071470000000001 -0.34831660000000003 -0.11341110000000001
0.8144750000000001 -0.35446960000000005 -0.1068601
0.733465 -0.2372516 -0.046717100000000004
0.7405490000000001 -0.24031660000000002 -0.043137100000000005
0.027381000000000003 0.24698940000000003 -0.19844910000000002
0.598045 0.1622994 -0.1505661
0.24424400000000002 -0.0252396 -0.43231909999999996
0.234387 -0.0238086 -0.4338381
0.22446000000000002 -0.022539600000000003 -0.4351321000000001
0.214255 -0.0216416 -0.4362771000000001
0.20400700000000002 -0.021078600000000003 -0.43684710000000004
0.193777 -0.0203866 -0.43765010000000004
0.183523 -0.0199256 -0.4381791
0.172906 -0.019797600000000002 -0.4384061
0.16266000000000003 -0.019142600000000003 -0.4391501
0.152812 -0.0181416 -0.4402571
0.14174899999999999 -0.0183956 -0.4400841
0.131541 -0.0182806 -0.44023110000000004
0.120523 -0.0190756 -0.4394601
0.109544 -0.0202646 -0.4383561
0.08431100000000001 0.2039894 -0.2539081
-0.32210200000000005 0.2674494 -0.17713710000000002
0.13209500000000002 0.2752094 -0.1691031
0.4084380000000001 0.2855994 -0.16339910000000002
0.128006 0.015076400000000002 -0.3946141
0.116631 0.013447400000000002 -0.3929341
0.098692 -0.0309276 -0.44755310000000004
-0.111723 -0.5927536 -0.3868511
-0.136819 -0.6010316000000001 -0.37885710000000006
0.343559 0.2538694 -0.2289891
-0.19822700000000001 0.2615094 -0.2127291
-0.187171 0.2618394 -0.2132311
0.751162 -0.2416476 -0.0417401
0.14829699999999998 0.023366400000000002 -0.3832571
0.158921 0.0234644 -0.3833221
0.039041 0.17845940000000002 -0.2665871
-0.130737 -0.5677696 -0.3700671
-0.09294400000000001 -0.5537826 -0.38424010000000003
0.552838 0.1070794 -0.2314491
0.12033300000000001 -0.029601600000000002 -0.4487781
0.004612000000000001 0.1836894 -0.2518361
0.416658 0.29090940000000004 -0.14902310000000002
0.213754 0.30879940000000006 -0.1667611
0.277405 0.24964940000000002 -0.2236621
-0.125498 0.2685494 -0.20050010000000001
-0.050005 0.2509794 -0.18160310000000002
0.27588 0.2864494 -0.18310010000000002
0.298329 0.2883794 -0.18561110000000003
-0.061797000000000005 -0.5656026 -0.3933991
0.096766 -0.0553016 -0.46268909999999996
0.085619 -0.05599760000000001 -0.4622691
0.7621310000000001 -0.2414786 -0.0422121
0.7731870000000001 -0.2406526 -0.0430731
-0.15608900000000003 0.28129940000000003 -0.1936751
0.783773 -0.2407736 -0.043061100000000005
0.793973 -0.24123160000000002 -0.0424401
-0.36592800000000003 -0.4976746000000001 -0.08657510000000002
0.26547000000000004 0.2768494 -0.19262310000000002
0.55416 0.1297794 -0.21572110000000003
0.804115 -0.24188360000000003 -0.041700100000000004
0.169166 0.0230174 -0.38269510000000007
0.11444000000000001 0.24194939999999998 -0.21382110000000001
0.530518 0.0647094 -0.2663011
0.180148 0.024040400000000003 -0.38361010000000006
-0.08324500000000001 0.1259894 -0.29057710000000003
0.447983 0.2404994 -0.19490810000000003
0.8139290000000001 -0.2431626 -0.0402491
-0.337708 0.4693494 -0.13503110000000002
-0.32887700000000003 0.46653940000000005 -0.1317591
-0.3194 0.4642894 -0.1294211
-0.30993200000000004 0.4620094 -0.1268961
-0.301102 0.45859940000000005 -0.1231671
-0.29244 0.45547940000000003 -0.11946810000000002
-0.28424 0.4504594 -0.11407510000000001
-0.601634 0.1680194 0.1429919
-0.6422810000000001 0.1877194 0.1176499
0.622547 0.09693940000000001 -0.18038110000000002
0.14572300000000002 0.1800894 -0.2687671
0.823316 -0.24531360000000002 -0.037919100000000004
-0.16712800000000003 0.30038940000000003 -0.17369810000000002
0.832214 -0.2486066 -0.0342121
0.8408690000000001 -0.25200360000000005 -0.030753100000000002
0.848669 -0.2573026 -0.0251121
-0.21257600000000001 0.3849094 -0.040451100000000004
-0.014849000000000001 0.19643940000000001 -0.24518610000000002
-0.106562 0.26403940000000004 -0.19573810000000003
-0.14022500000000002 0.20997940000000004 -0.2388861
0.086287 -0.0038566000000000004 -0.4151121
0.536818 0.2070794 -0.1587111
0.155928 -0.0843016 -0.47246509999999997
0.164855 -0.0878426 -0.46930910000000003
0.445406 0.1049394 -0.2689551
-0.32307 0.2549794 -0.1838181
-0.334511 0.2536194 -0.1823381
-0.06932 0.24425940000000002 -0.19464910000000002
0.44693 0.2582294 -0.1738881
0.429103 0.26477940000000005 -0.1810691
0.529017 -0.09279860000000001 -0.31966310000000003
0.275054 0.0035984000000000003 -0.4016201
0.456496 0.25620940000000003 -0.1716261
0.437801 0.2611194 -0.1770401
0.410682 0.2701794 -0.1867761
0.555993 0.1732794 -0.1824321
0.4201190000000001 0.2678894 -0.1843581
0.24426199999999998 0.19657940000000002 -0.26679210000000003
0.39851200000000003 -0.014271600000000002 -0.36242610000000003
-0.11574400000000001 0.2668594 -0.19878810000000002
0.092617 0.1594994 -0.2867951
0.060334 0.1585494 -0.2857001
0.04977 0.1581294 -0.28522810000000004
0.545376 0.1333994 -0.2195661
0.527002 0.1388394 -0.2254301
0.26790400000000003 0.1910394 -0.27975110000000003
0.278635 0.1919594 -0.2821551
-0.078792 -0.48311560000000003 -0.3310821
0.650966 -0.041728600000000005 -0.21292110000000003
0.527687 -0.041931600000000006 -0.3129831
0.34855400000000003 0.17355940000000003 -0.2824581
-0.146716 0.2484194 -0.2193991
0.5499520000000001 -0.1768096 -0.3149901
0.541871 -0.17023860000000002 -0.3203791
-0.23138800000000004 0.28840940000000004 -0.18049310000000002
0.52642 -0.15798160000000003 -0.33265910000000004
0.7608790000000001 -0.33624960000000004 -0.1266551
0.7710650000000001 -0.33695260000000005 -0.1258041
0.780923 -0.3383026 -0.12434510000000001
0.32179500000000005 -0.039257600000000004 -0.4170901
0.398623 0.2870894 -0.16496710000000003
0.30130100000000004 -0.0380006 -0.4185351
0.291883 -0.0357076 -0.4210611
0.282616 -0.0330076 -0.42357810000000007
0.273274 -0.0305996 -0.42632510000000007
0.26362199999999997 -0.028879600000000002 -0.4284591
0.254083 -0.0267636 -0.4306401
0.718678 -0.31521160000000004 -0.1078241
0.729739 -0.3144516 -0.1085751
0.740788 -0.3133386 -0.10969910000000001
0.751792 -0.3123996 -0.11060110000000001
0.762456 -0.31202060000000004 -0.11096310000000001
0.773046 -0.31208260000000004 -0.1107931
0.782988 -0.31340260000000003 -0.1093681
0.792398 -0.31573260000000003 -0.1068401
0.8014160000000001 -0.31880060000000005 -0.10354410000000001
0.8095330000000001 -0.32350460000000003 -0.0985641
0.817389 -0.3294606 -0.09249410000000001
0.824682 -0.3357396 -0.0858101
0.32194 0.25338940000000004 -0.2282291
0.44003100000000006 0.1354794 -0.26133310000000004
0.09847900000000001 -0.0209026 -0.43770410000000004
0.08829200000000001 -0.020567600000000002 -0.43823410000000007
-0.176978 0.28190940000000003 -0.1941641
0.40971500000000005 0.2781694 -0.1754921
0.259672 -0.057283600000000004 -0.4392191000000001
0.250095 -0.0549516 -0.44315810000000005
0.24102500000000002 -0.0522076 -0.44437610000000005
0.244283 0.2766194 -0.1922511
0.162614 -0.5900976 -0.3444321
0.168135 -0.6131396 -0.3413951
-0.143045 -0.4854976 -0.24589310000000003
-0.028945 -0.6051676 -0.3906931
-0.107091 0.2529794 -0.2041111
-0.097694 0.25060940000000004 -0.2015481
-0.324136 0.2432394 -0.1916721
-0.336071 0.2411394 -0.1893881
-0.25362 0.25625939999999997 -0.20657709999999999
-0.129632 0.20967940000000002 -0.2385471
0.45814000000000005 0.2098194 -0.22178209999999998
0.48664500000000005 -0.059463600000000005 -0.33453710000000003
-0.027618 -0.5501196 -0.38777710000000004
0.190786 0.0242914 -0.3837631
0.31370300000000007 -0.0241006 -0.4128101
0.178846 0.14249940000000003 -0.3090041
0.048959 0.13668940000000002 -0.3026281
0.137717 0.24564940000000002 -0.2182521
0.482346 0.044378400000000005 -0.3044171
0.142038 0.1226694 -0.3079341
0.288887 0.2509994 -0.2253021
-0.017263 0.2524594 -0.18361510000000003
0.28681100000000004 0.2875294 -0.18430210000000002
0.319602 0.2884794 -0.1859541
0.128695 -0.0546716 -0.4631351000000001
0.138971 -0.0553246 -0.46242710000000004
0.10735600000000001 -0.0549866 -0.4630031
0.427308 -0.0922916 -0.3814491
0.436078 -0.09536860000000001 -0.37778310000000004
0.658734 -0.0471796 -0.2071481
-0.16813100000000003 0.3082694 -0.1619921
0.618687 0.049199400000000004 -0.2097111
-0.300431 0.24769940000000001 -0.1967361
0.808624 -0.33523260000000005 -0.1066821
-0.12323400000000001 -0.46549759999999996 -0.2117581
-0.09380300000000001 -0.4703916000000001 -0.2605781
-0.10618700000000002 -0.4738636 -0.2572011
0.439396 0.24437940000000002 -0.19906310000000002
-0.07742 -0.4904426 -0.3441231
0.473333 0.0474554 -0.3077701
-0.32518400000000003 0.2001794 -0.2271401
0.282338 0.0870494 -0.31017110000000003
0.46145100000000006 -0.0366036 -0.3388911
0.013383 0.047382400000000005 -0.3287531
-0.338801 0.45745940000000007 -0.1421811
-0.32935800000000004 0.45523939999999996 -0.1397581
-0.31984100000000004 0.45342940000000004 -0.1376381
-0.310603 0.4506894 -0.13481410000000002
-0.30169500000000005 0.4471394 -0.1310181
-0.29354 0.44354940000000004 -0.1265431
-0.285854 0.4377594 -0.1201721
-0.278715 0.4322894 -0.11358610000000001
-0.270863 0.4252794 -0.1064001
-0.262697 0.4207694 -0.1013351
0.024383000000000002 0.0482394 -0.3295081
-0.43594400000000005 -0.2482436 0.24100890000000003
0.035025 0.0483494 -0.32960910000000004
-0.231879 0.39959940000000005 -0.0777821
-0.6047130000000001 0.1798394 0.34784190000000004
-0.218668 0.38343940000000004 -0.05956310000000001
-0.21169600000000002 0.3767094 -0.0520211
-0.20445000000000002 0.37000940000000004 -0.0445081
-0.19734700000000002 0.36327940000000003 -0.0369981
0.23422900000000002 0.2676094 -0.20258910000000002
0.7877550000000001 -0.35542760000000007 -0.1263611
0.778721 -0.3530106 -0.12951310000000002
0.7594750000000001 -0.3494876 -0.1332941
0.770174 -0.3499316 -0.1313601
0.174412 -0.08956960000000001 -0.46678610000000004
-0.166133 0.2719794 -0.20397010000000002
0.242887 -0.03824060000000001 -0.4389951
0.059999000000000004 -0.6049626 -0.3668471
0.488491 -0.045828600000000004 -0.3289761
0.10932900000000001 -0.0307756 -0.4475931
-0.088889 0.23706939999999999 -0.2072751
-0.444809 0.1964494 0.42451990000000006
0.016854 0.0027014 -0.3421461
0.143803 0.2974894 -0.15318710000000002
0.40602099999999997 -0.0505386 -0.3844671
0.39181400000000005 0.27468940000000003 -0.1915711
0.075291 -0.0049266 -0.4141591
-0.012596 -0.5734276 -0.3849001
-0.12607600000000002 0.2572894 -0.2087331
0.536714 0.2167594 -0.1490361
0.05310700000000001 0.011384400000000001 -0.3512101
-0.233053 0.3055694 -0.1583091
0.509237 -0.09882760000000002 -0.3342081
0.45686400000000005 0.24698940000000003 -0.18190810000000002
0.017186000000000003 -0.0269636 -0.41211510000000007
0.595964 -0.0752256 -0.27834010000000003
-0.090605 -0.48618059999999996 -0.3282391
0.353613 0.2629594 -0.2188341
0.5365420000000001 -0.0455846 -0.3092761
0.57391 -0.19025060000000002 -0.2991181
0.06521900000000001 -0.014085600000000002 -0.4248881
0.705885 -0.34045860000000006 -0.1225301
0.717392 -0.33890060000000005 -0.12401210000000001
0.728527 -0.3376206 -0.1254441
0.73916 -0.3372876 -0.12578910000000001
0.7502880000000001 -0.33605360000000006 -0.1271411
0.34924200000000005 -0.047619600000000005 -0.4080321
0.3406 -0.0442216 -0.4120931
0.33157600000000004 -0.040786600000000006 -0.4153701
0.141606 -0.029336600000000004 -0.44893010000000005
0.40187400000000006 0.2239894 -0.2369621
0.25263800000000003 -0.0398376 -0.43701910000000005
0.04641100000000001 0.050059400000000004 -0.3314321
0.6845410000000001 -0.2968016 -0.1266511
0.6897380000000001 -0.30886060000000004 -0.1142151
0.6977730000000001 -0.31437960000000004 -0.1084541
0.707269 -0.31603460000000005 -0.10671710000000001
0.15643800000000002 0.3011894 -0.15748410000000002
0.744809 -0.2226016 -0.0011161
0.284123 -0.019828600000000002 -0.41739410000000005
0.225339 0.0589394 -0.3208381
0.6350950000000001 -0.020789600000000002 -0.21502110000000002
0.5939390000000001 0.0026824 -0.2400601
0.536541 0.0359934 -0.2754491
0.5019210000000001 0.0515494 -0.2918361
0.706693 -0.3284786 -0.1147481
0.203017 0.2693994 -0.2042671
0.192603 0.25942940000000003 -0.2135531
0.48463000000000006 0.08884940000000001 -0.27187310000000003
0.522652 0.08028940000000001 -0.2628101
0.295077 0.0012584 -0.3990631
0.5736640000000001 0.16649940000000002 -0.1751011
0.35104500000000005 0.20825939999999998 -0.2598181
0.07725 -0.0214546 -0.4373851
0.065832 -0.023152600000000002 -0.4357421000000001
0.16658900000000001 0.0680694 -0.3301891
-0.09827200000000001 0.23945940000000002 -0.2098451
-0.057788 0.2357494 -0.20605110000000001
0.23116 -0.0508286 -0.4457331
0.14422100000000002 0.27830940000000004 -0.1726611
0.20143100000000003 0.024060400000000003 -0.3836791
0.134161 0.16793940000000002 -0.27578610000000003
-0.257323 -0.5672956 -0.2049381
0.7844730000000001 -0.28967160000000003 -0.0930221
0.126416 0.2038594 -0.2539601
0.454552 -0.009045599999999999 -0.3279151
0.622099 0.1069094 -0.1710181
0.43026400000000004 0.24722940000000004 -0.20217410000000002
0.46667300000000006 0.2355394 -0.18951010000000001
-0.005044 0.23550939999999998 -0.2060821
0.44550200000000006 0.1759194 -0.2451821
0.42417299999999997 -0.0264316 -0.3495701
-0.008297 -0.5537766000000001 -0.3837971
0.252421 0.1618194 -0.28976510000000005
0.430685 0.1378094 -0.2640091
0.427597 0.2814994 -0.1592811
0.21127300000000002 0.0227404 -0.3821971
0.22318400000000002 -0.0353756 -0.44211410000000007
0.22226400000000002 0.0235244 -0.3830411
0.030566 -0.0404006 -0.43834210000000007
-0.035102 -0.5870056 -0.3920381
-0.005579000000000001 0.18392940000000002 -0.2520291
0.10360100000000001 0.24046940000000003 -0.21249410000000002
-0.363114 0.7864694000000001 -0.7062691000000001
-0.11455100000000001 -0.4804856 -0.2713611
0.299909 0.2516094 -0.22618710000000003
-0.15183100000000002 0.19775940000000003 -0.24596510000000002
0.308943 0.28857940000000004 -0.1858971
0.11802299999999999 -0.054778600000000004 -0.4631291
0.028191 -0.0655846 -0.4529261
0.040058 -0.0631396 -0.45522510000000005
0.41921200000000003 -0.08844260000000001 -0.38488110000000003
-0.287098 -0.6069676 -0.20667610000000003
0.232516 0.0229904 -0.3823461
0.495306 0.10903940000000001 -0.2534481
-0.042018 -0.5039106000000001 -0.3714641
-0.150426 0.2108394 -0.2398681
-0.018305 0.1492994 -0.2755521
0.22325300000000003 0.1668494 -0.2950681
0.465084 0.10196940000000002 -0.2658311
0.182035 0.2591094 -0.2131401
-0.054423 -0.4863486 -0.34803910000000005
-0.06591200000000001 -0.4884066 -0.3460751
0.24463800000000002 0.25721940000000004 -0.21156510000000003
0.6063620000000001 0.025957400000000005 -0.22498710000000002
-0.11789000000000001 0.24259940000000002 -0.2131931
-0.11859200000000002 0.2310994 -0.22098110000000004
-0.348949 0.44845940000000006 -0.1525691
-0.340058 0.44499940000000004 -0.1490021
-0.33069400000000004 0.44271940000000004 -0.1464211
-0.321041 0.44104940000000004 -0.1443911
-0.312009 0.4380494 -0.1411321
-0.303224 0.43489940000000005 -0.1374461
-0.295227 0.4297594 -0.1318051
-0.287701 0.42266940000000003 -0.12437609999999999
-0.280639 0.4160194 -0.11681910000000001
-0.272446 0.4130394 -0.11295710000000002
-0.2635 0.4094894 -0.1091891
-0.255134 0.4055394 -0.1048371
-0.24714000000000003 0.39997940000000004 -0.0987171
-0.239216 0.39474940000000003 -0.0928761
-0.23171400000000003 0.3893194 -0.0868821
-0.22469899999999998 0.38203940000000003 -0.0786691
-0.21832600000000002 0.3749094 -0.0708351
-0.210961 0.36839940000000004 -0.0635351
-0.20324 0.3619694 -0.0561681
-0.196079 0.35573940000000004 -0.049409100000000004
0.181479 0.22802940000000002 -0.24007109999999998
0.5292570000000001 -0.14257660000000003 -0.32880410000000004
0.5368970000000001 -0.1479956 -0.3228461
0.544567 -0.15481160000000002 -0.3162641
0.7488630000000001 -0.3494106 -0.13373710000000003
0.738148 -0.34960860000000005 -0.13353710000000002
0.7274470000000001 -0.35005660000000005 -0.1329851
0.716345 -0.35112160000000003 -0.13189910000000002
0.70524 -0.3522116 -0.1307421
0.694188 -0.35333860000000006 -0.1296701
-0.268898 -0.5696656 -0.2025041
0.274694 0.30411940000000004 -0.1620831
0.09341500000000001 0.009221400000000001 -0.3886741
0.6732420000000001 -0.35226160000000006 -0.1303591
0.683745 -0.3532456 -0.1302101
0.17082200000000003 0.22809940000000004 -0.2400731
0.7908330000000001 -0.22780260000000002 -0.016478100000000002
0.38197100000000006 0.27613940000000003 -0.1930881
0.401279 0.2725094 -0.1892351
0.15748 0.2731994 -0.1875521
0.14482 0.26952940000000003 -0.1832551
0.16964800000000002 0.27626940000000005 -0.1911001
0.192522 0.2794494 -0.19487110000000002
0.20405099999999998 0.2807794 -0.19649110000000003
0.167413 0.029442400000000004 -0.3695141
-0.336299 0.20892940000000004 -0.21599010000000002
-0.13024 -0.48109260000000004 -0.25036610000000004
0.41038300000000005 0.21003940000000001 -0.24190109999999998
0.064697 -0.0460146 -0.4524191
0.138141 0.2265494 -0.2381031
0.685092 -0.34018360000000003 -0.1230381
0.695468 -0.34048560000000005 -0.12287410000000001
0.395703 -0.060344600000000005 -0.39438110000000004
0.38623 -0.058103600000000005 -0.3967341
0.437491 0.2703494 -0.16723010000000002
0.36715600000000004 -0.0543056 -0.4012191
0.358063 -0.051330600000000004 -0.40429709999999996
-0.03514900000000001 0.2083894 -0.2376871
0.571632 0.1220494 -0.20736210000000002
0.152254 -0.029334600000000002 -0.4487881
-0.36156900000000003 0.19052940000000002 -0.21637309999999998
0.127495 0.22636940000000003 -0.23785610000000001
-0.240518 -0.5979126 -0.2153291
-0.003042 -0.5756156 -0.38321610000000006
0.49924999999999997 -0.32772960000000007 -0.34089710000000006
0.038398 0.2078194 -0.23735210000000004
0.04946300000000001 0.20834940000000002 -0.2380521
0.06090100000000001 0.20980940000000003 -0.23978510000000003
0.072239 0.2115494 -0.2416801
0.256025 -0.0025046 -0.4156281
0.265535 -0.0045626 -0.41349710000000006
0.27529400000000004 -0.0061326 -0.4116251
0.285075 -0.007743600000000001 -0.4098501
0.29497300000000004 -0.0090236 -0.4084681
0.304821 -0.0104956 -0.4068921
0.314816 -0.011613600000000002 -0.40577610000000003
0.324516 -0.013380600000000001 -0.40375810000000006
0.33365200000000006 -0.0163746 -0.40057010000000004
0.342507 -0.0196306 -0.3971021
0.351286 -0.0233086 -0.3932451
0.360776 -0.0255086 -0.3908671
0.370334 -0.027503600000000003 -0.3887901
0.30889700000000003 0.17879940000000002 -0.28914710000000005
0.09512300000000001 0.1944794 -0.2639071
0.003959 -0.5924686 -0.38352110000000006
-0.060887000000000004 0.034137400000000005 -0.31754410000000005
0.054372000000000004 -0.0247196 -0.4341321
0.04304 -0.0266206 -0.43228310000000003
0.05705400000000001 0.050059400000000004 -0.3311311
0.08364200000000001 0.21325940000000002 -0.24357810000000002
0.394272 0.0883594 -0.2912611
0.15685700000000002 0.28202940000000004 -0.1769961
0.20089800000000002 -0.0479956 -0.4491571000000001
0.191066 -0.0464696 -0.4509421
0.10566500000000001 0.21519940000000004 -0.24583210000000003
0.6620330000000001 -0.3663326 -0.1381331
-0.15507800000000002 0.16089940000000003 -0.2673291
0.719808 -0.2925146 -0.09063510000000001
0.6221460000000001 0.0864694 -0.18921010000000002
0.605971 0.0963494 -0.19986210000000001
0.528142 0.21086939999999998 -0.1627811
0.09037200000000001 0.2456994 -0.19756910000000003
0.064863 0.0139764 -0.3539221
0.50733 -0.33239060000000004 -0.33583310000000005
-0.170145 0.2136294 -0.2428191
-0.055851 -0.47871759999999997 -0.33509910000000004
0.11635899999999999 -0.5794906000000001 -0.35612710000000003
0.17292400000000002 -0.5899456 -0.3437211
0.128311 -0.0684556 -0.46975809999999996
0.11673700000000001 0.2156994 -0.24649410000000002
0.148627 0.21586940000000002 -0.24688110000000002
-0.086313 -0.4766666 -0.2959331
0.5096310000000001 0.0354524 -0.2949661
0.35586300000000004 0.1571494 -0.28476910000000005
0.19027700000000003 0.1440294 -0.3104821
0.474615 0.1805494 -0.23034710000000003
0.6134010000000001 0.08045940000000001 -0.2028301
0.062448000000000004 0.1928694 -0.2620221
0.027231 0.15603940000000002 -0.2829481
0.514129 0.0943094 -0.25781610000000005
0.6261800000000001 0.043080400000000005 -0.2031351
0.537448 0.1783694 -0.1878701
0.612446 -0.08375260000000001 -0.2686501
0.333464 -0.006483600000000001 -0.39071310000000004
0.46297 0.2778094 -0.13520110000000002
0.052153000000000005 -0.009368600000000001 -0.4098141
-0.154507 0.17218940000000002 -0.2591201
0.063328 -0.058969600000000004 -0.45919410000000005
0.7743990000000001 -0.27832260000000003 -0.0846341
0.157145 0.18161940000000001 -0.2704351
0.6060690000000001 0.1168294 -0.1817091
0.24273600000000004 0.022159400000000003 -0.38152810000000004
0.0025570000000000002 0.1085294 -0.3129711
0.143355 0.13546940000000002 -0.3015181
-0.167004 0.14778940000000002 -0.2735181
0.149098 0.2473394 -0.22015110000000002
0.252643 0.021265400000000004 -0.38022010000000006
-0.08827000000000002 0.2080594 -0.2370181
0.542126 0.0868794 -0.2498091
0.070432 0.07862940000000002 -0.32251610000000003
0.394366 0.06814940000000001 -0.3096281
0.140797 0.0095674 -0.4086511
0.587121 0.08136940000000001 -0.22383609999999998
-0.351165 0.43432940000000003 -0.1571721
-0.34298500000000004 0.43189940000000004 -0.1549261
0.168489 0.2036194 -0.25391610000000003
-0.323151 0.42694940000000003 -0.1492011
-0.31417000000000006 0.4239094 -0.1457431
-0.305721 0.42007940000000005 -0.14128210000000002
-0.2985 0.4131694000000001 -0.1356871
-0.29009900000000005 0.4084694 -0.12884310000000002
-0.28218000000000004 0.4038294 -0.1233921
-0.273082 0.4012294 -0.12047110000000001
-0.2638 0.3984394 -0.1174891
-0.255564 0.39492940000000004 -0.11349610000000002
-0.247506 0.38943940000000005 -0.10748210000000001
-0.23969200000000002 0.38420940000000003 -0.1016681
-0.232001 0.3783594 -0.0951811
-0.224863 0.37165940000000003 -0.0877001
-0.218004 0.36539940000000004 -0.0807621
-0.21005300000000002 0.3590894 -0.0736191
-0.20248900000000003 0.3536094 -0.0676721
-0.19523100000000002 0.3473294 -0.060885100000000004
-0.14359200000000003 0.1617994 -0.26856209999999997
0.479421 -0.0427986 -0.33220510000000003
0.546914 -0.1388396 -0.31210010000000005
0.552203 -0.1602806 -0.3103091
0.560358 -0.1648896 -0.3053581
-0.014660000000000001 0.20728939999999998 -0.2366021
0.380562 0.2831094 -0.18080010000000002
0.34007000000000004 0.28697940000000005 -0.1845211
0.075605 -0.044816600000000005 -0.4536961
0.8161830000000001 -0.3406446 -0.10083009999999999
0.32982300000000003 0.2877194 -0.1852291
0.21327200000000002 -0.0341086 -0.44336510000000007
0.47241700000000003 -0.0975486 -0.35555810000000004
0.059488 0.23750939999999998 -0.20876610000000004
0.29009 0.2332194 -0.24635810000000002
0.741944 -0.2696726 -0.0735131
-0.032328 -0.5160426 -0.37992810000000005
0.600519 -0.09572760000000001 -0.2769741
0.752977 -0.26939860000000004 -0.0738331
0.763981 -0.2685306 -0.07468810000000001
0.23111199999999998 0.0299214 -0.36992310000000006
0.022455000000000003 -0.0068436 -0.3725611
0.029532000000000003 -0.052531600000000005 -0.4461201
0.042372 -0.048825600000000004 -0.4496251
0.053696999999999995 -0.0469846 -0.45144510000000004
0.244337 0.2966994 -0.1739101
0.369284 0.2918494 -0.17012110000000003
0.319006 0.2976394 -0.17572410000000002
-0.04632700000000001 0.1767894 -0.26440210000000003
0.45470900000000003 0.0525094 -0.3130161
0.33316100000000004 0.2641194 -0.21999710000000003
0.36378900000000003 0.2619394 -0.2178641
0.08364100000000001 -0.5913236000000001 -0.36366610000000005
0.489863 -0.0330606 -0.3224881
0.41814900000000005 0.2837194 -0.1616611
-0.015576000000000001 0.0112354 -0.3309671
-0.004751 0.0123844 -0.3324671
0.007635 0.0153634 -0.3352121
0.018609999999999998 0.016314400000000003 -0.3362751
0.029199000000000003 0.016531399999999998 -0.3364961
0.039853 0.0165154 -0.3364011
0.066871 0.0488494 -0.33034610000000003
0.050841000000000004 0.0175574 -0.3374511
0.062207000000000005 0.0192574 -0.33923210000000004
0.285215 0.35248940000000006 -0.07374810000000001
0.296243 0.35269940000000005 -0.0746421
0.306484 0.3523794 -0.0741001
0.317105 0.35218940000000004 -0.0742121
0.32736800000000005 0.35187940000000006 -0.0737041
0.07412300000000001 0.0213914 -0.3414321
0.085947 0.0236494 -0.3437541
0.097571 0.0253424 -0.34575710000000004
0.109039 0.0281344 -0.34845410000000004
0.119756 0.0297904 -0.34993910000000006
0.131447 0.030818400000000003 -0.3511921
-0.004613 0.19592940000000003 -0.2446941
0.5070830000000001 -0.05097660000000001 -0.3235931
0.124498 0.17984940000000002 -0.2684261
0.30168100000000003 0.22516940000000002 -0.2578631
-0.23114 0.24924940000000004 -0.21957110000000002
0.48476 0.23941940000000003 -0.1735761
0.261927 -0.042595600000000004 -0.43450810000000006
0.37975800000000004 -0.0297656 -0.3863611
0.38909900000000003 -0.0321866 -0.3837191
0.104955 0.19313940000000002 -0.26250110000000004
0.14325300000000002 0.033366400000000004 -0.35376610000000003
-0.08888800000000001 -0.5999016 -0.40026310000000004
0.15421800000000002 0.0342734 -0.35466210000000004
0.31935800000000003 0.17848940000000002 -0.2874661
0.16526200000000002 0.0351824 -0.35557310000000003
0.03029 -0.030430600000000002 -0.4283831
0.09720100000000001 0.2887694 -0.14297610000000002
0.225078 -0.010914600000000002 -0.42711610000000005
0.510711 0.047506400000000004 -0.28788610000000003
0.181186 -0.0451296 -0.45226910000000003
0.17100100000000001 -0.044407600000000005 -0.4531931
0.16076900000000002 -0.043691600000000004 -0.4541231
0.150546 -0.042935600000000004 -0.45500910000000006
-0.31801900000000005 0.29511940000000003 -0.16689510000000002
0.714839 -0.3641186 -0.1390771
0.6141530000000001 0.09173940000000001 -0.1948841
0.45494100000000004 0.1736894 -0.2427921
-0.159655 -0.5938486000000001 -0.3653961
0.005942 0.2363394 -0.2070871
0.176294 0.0358234 -0.35641110000000004
0.18690400000000001 0.0362024 -0.3565851
-0.277398 0.2208694 -0.2293961
-0.265919 0.22230940000000002 -0.2310451
0.197497 0.0364924 -0.3567501
0.276618 0.26809940000000004 -0.20336710000000002
0.20813500000000001 0.0369874 -0.3569701
0.26287 0.0203734 -0.3793741
0.518417 0.0317624 -0.2911591
0.40309700000000004 0.1459994 -0.2727441
0.21913900000000003 0.037600400000000006 -0.3577441
-0.423219 0.8622394 -0.6540431
0.229017 0.035885400000000005 -0.3561151
0.48235200000000006 0.16533940000000003 -0.2336881
0.004932000000000001 0.1532794 -0.2799281
0.27275200000000005 0.019239400000000004 -0.37796810000000003
0.282573 0.017427400000000003 -0.37626210000000004
-0.32095300000000004 -0.6007926000000001 -0.1923901
0.23964 0.0362724 -0.3562941
0.063907 -0.0067006 -0.41241110000000003
-0.20884100000000003 0.2612694 -0.2124041
0.7742330000000001 -0.2889936 -0.0938031
0.052003 -0.06083260000000001 -0.4573011
0.157873 0.2035694 -0.25385810000000003
0.5977140000000001 0.1212994 -0.18654710000000002
0.589166 0.12517940000000002 -0.19071110000000002
0.6143740000000001 0.11187940000000002 -0.1762741
0.265656 0.2669494 -0.20214110000000002
0.249896 0.0356784 -0.3555631
0.50607 0.11937940000000001 -0.24452210000000002
0.05808 0.2645994 -0.17735610000000002
0.520254 -0.0874086 -0.32565510000000003
0.260124 0.0348974 -0.3548141
0.571176 0.10160940000000002 -0.2255281
0.6288860000000001 -0.0936106 -0.2585101
0.6685730000000001 -0.0084246 -0.1678611
0.6607630000000001 -0.0035796000000000005 -0.17311110000000002
0.578685 0.0853494 -0.22822209999999998
0.089024 0.2730094 -0.1664351
0.15200100000000002 0.0009394 -0.41969010000000007
0.179124 0.20364939999999998 -0.2540121
-0.201705 0.2143294 -0.2435441
-0.36151500000000003 0.2012494 -0.20745610000000003
-0.231594 0.23775940000000004 -0.2276091
-0.30860200000000004 0.4039294 -0.1441551
-0.30051800000000006 0.39827940000000006 -0.1384031
-0.292123 0.39498940000000005 -0.1340711
-0.28319200000000005 0.39230940000000003 -0.13072910000000001
-0.273768 0.39003940000000004 -0.12834410000000002
-0.264529 0.3872794 -0.1255161
-0.256119 0.3833894 -0.1211741
-0.248151 0.3772494 -0.1145751
-0.24028100000000002 0.3725394 -0.10922510000000002
-0.232603 0.3677294 -0.1038251
-0.225311 0.36055940000000003 -0.09589510000000001
-0.217762 0.3546494 -0.08930310000000001
-0.210092 0.3492094 -0.08332310000000001
-0.20251600000000003 0.3438694 -0.0774351
-0.193498 0.3401794 -0.0734791
-0.184172 0.33754940000000005 -0.0710181
0.26994500000000005 0.0333764 -0.35322410000000004
0.27945600000000004 0.0311934 -0.35142310000000004
0.289486 0.0297494 -0.3498751
0.5394650000000001 -0.1326436 -0.3186251
0.5318660000000001 -0.1272116 -0.3246121
0.5240910000000001 -0.1211126 -0.3307011
0.515982 -0.1164656 -0.3357671
0.50738 -0.11199060000000001 -0.34011410000000003
0.49901 -0.1074756 -0.34473210000000004
0.490074 -0.1045876 -0.34856410000000004
0.48126800000000003 -0.1006626 -0.3519591
0.46362300000000006 -0.0938096 -0.3593441
0.454937 -0.09000760000000001 -0.3632921
0.44663700000000006 -0.08544260000000001 -0.36809610000000004
0.7313350000000001 -0.2700496 -0.0734191
0.37302 0.2295994 -0.24288710000000002
0.29938 0.028488400000000004 -0.34835210000000005
0.10995600000000001 -0.5988886 -0.3532541
0.30896300000000004 0.0268864 -0.34623210000000004
0.077506 0.048979400000000006 -0.33037110000000003
0.6764350000000001 -0.3378796 -0.1262131
0.370188 0.052279400000000004 -0.31291810000000003
0.5779390000000001 0.012653400000000002 -0.25075810000000004
0.319218 0.026294400000000002 -0.3455361
0.08812500000000001 0.049069400000000006 -0.33039710000000005
0.082507 0.31920940000000003 -0.05405410000000001
0.09878100000000001 0.0489594 -0.3300081
0.10647400000000001 0.3245094 -0.0604301
0.11825200000000001 0.3269494 -0.0632491
0.130028 0.3292594 -0.0660141
0.142232 0.3321794 -0.06959710000000001
0.15360400000000002 0.3338894 -0.0715641
0.16498400000000002 0.3354994 -0.0734911
0.17730400000000002 0.3380194 -0.07695210000000001
0.188641 0.33980940000000004 -0.07894210000000002
0.199584 0.34107940000000003 -0.08013710000000002
0.21102100000000001 0.3424394 -0.08196010000000001
0.22245499999999999 0.3438394 -0.0838591
0.233451 0.34482940000000006 -0.0849781
0.244454 0.3456194 -0.08602510000000001
0.255496 0.34629940000000003 -0.0870611
0.266519 0.3469394 -0.08805110000000001
0.277106 0.34726940000000006 -0.0883661
0.288168 0.34768940000000004 -0.08928710000000001
0.29880100000000004 0.3476794 -0.0894661
0.30902300000000005 0.3473594 -0.0889771
0.31965 0.3472294 -0.0891091
0.32990300000000006 0.3465094 -0.0884221
0.340158 0.34590940000000003 -0.08781510000000001
0.350044 0.3445494 -0.08635310000000002
0.360225 0.34340940000000003 -0.0855381
0.369792 0.34190940000000003 -0.0834271
0.379661 0.34036940000000004 -0.08186210000000001
0.328997 0.024566400000000002 -0.3438331
0.33887900000000004 0.023348400000000002 -0.34240610000000005
0.34828800000000004 0.0207564 -0.3398241
0.35814900000000005 0.019503400000000004 -0.3383721
0.7102280000000001 -0.27946160000000003 -0.08355610000000001
0.36801900000000004 0.0181274 -0.3368551
0.5538630000000001 -0.31372360000000005 -0.2935311
-0.160299 0.2121194 -0.2411511
0.42507200000000006 -0.0046156 -0.3326661
0.456014 0.2651694 -0.1613331
0.39788 -0.0358496 -0.3799111
0.40682 -0.039008600000000004 -0.3765231
0.292785 0.0167094 -0.3754931
-0.10204 -0.6053056 -0.39500810000000003
0.6023350000000001 -0.012025600000000001 -0.2444771
0.22501400000000002 0.0092234 -0.40772610000000004
0.550091 0.0714294 -0.2535641
0.456811 -0.07622860000000001 -0.3576161
-0.075965 -0.5193406 -0.37684110000000004
0.131614 0.1329094 -0.2986891
0.545196 0.032201400000000005 -0.2714071
0.6023240000000001 -0.0018235999999999999 -0.2352921
0.6512 -0.0307156 -0.20447310000000002
0.11404600000000001 0.17001940000000001 -0.27797510000000003
0.14030700000000002 -0.0421976 -0.45589110000000005
0.130405 -0.041090600000000005 -0.45690910000000007
0.725978 -0.36323560000000005 -0.1398571
0.736703 -0.3629756 -0.1401371
0.747013 -0.3635696 -0.1394931
0.27684400000000003 0.056129399999999996 -0.31728510000000004
-0.098831 0.2283194 -0.2181081
0.377881 0.0166904 -0.3353241
0.546167 -0.3090316 -0.2990841
0.46550500000000006 0.1128094 -0.25762710000000005
0.108208 0.0468604 -0.32790110000000006
0.15846700000000002 0.0831694 -0.32637010000000005
0.589485 0.13604940000000001 -0.18236110000000003
0.5357470000000001 0.024195400000000002 -0.28303110000000004
-0.18776800000000002 0.1590494 -0.2652141
-0.43221100000000007 0.8541794 -0.6643361
-0.42044100000000006 0.8574394000000001 -0.6692751000000001
-0.32325000000000004 -0.30802360000000006 0.22878090000000004
0.387681 0.015200400000000001 -0.3336811
0.39783 0.013011400000000001 -0.33142710000000003
0.444945 0.2840194 -0.14177910000000002
0.277282 0.25886939999999997 -0.2136271
-0.238464 -0.5831316000000001 -0.20920510000000003
-0.26108400000000004 -0.5848266 -0.20841210000000002
-0.27883600000000003 0.20825939999999998 -0.23632810000000004
0.117984 -0.0684886 -0.4698541
-0.145787 0.2602294 -0.2117931
0.593107 0.20206940000000004 -0.0927631
-0.054332000000000005 0.2819494 -0.1341841
0.430376 0.22756940000000003 -0.22087810000000002
0.48581700000000005 0.21176940000000002 -0.2039741
-0.09076200000000001 0.1523394 -0.2785491
0.121703 0.0630794 -0.3253441
-0.066981 -0.5984216 -0.39967510000000006
-0.07803900000000001 0.1875494 -0.2556661
0.6364040000000001 0.0624594 -0.18357310000000002
0.310545 0.2713994 -0.2075271
0.302634 0.015428400000000002 -0.3739951
0.061859 0.20170940000000004 -0.2513121
0.027791 -0.016005600000000002 -0.4030631
0.676428 -0.0143556 -0.1614901
0.561269 0.09283940000000002 -0.23621210000000004
0.570293 0.08981940000000001 -0.23293110000000003
0.47040400000000004 0.2815394 -0.1190311
0.803388 -0.29411960000000004 -0.08827410000000001
0.190187 0.2041194 -0.2545571
-0.212669 0.2131694 -0.2419591
-0.348405 0.2056994 -0.21235110000000001
-0.24255900000000002 0.23678940000000004 -0.2264701
-0.31115200000000004 0.3890494 -0.1479981
-0.30245600000000006 0.38587940000000004 -0.14405110000000002
-0.293429 0.3828694 -0.1407541
-0.284212 0.3799994 -0.1377941
-0.274781 0.37773940000000006 -0.1353721
-0.265674 0.37482940000000003 -0.1322091
-0.25722700000000004 0.3709494 -0.1278251
-0.249388 0.36519940000000006 -0.1216121
-0.24178000000000002 0.35980940000000006 -0.1155211
-0.23381200000000002 0.3540994 -0.10931010000000002
-0.22603300000000004 0.3488394 -0.10339210000000001
-0.21795200000000003 0.3445994 -0.09882410000000001
-0.210233 0.33937940000000005 -0.0934471
-0.200664 0.3367194 -0.0901041
-0.19104300000000002 0.3345494 -0.0883261
-0.18113200000000002 0.3328894 -0.0868411
-0.171153 0.3314494 -0.0853811
-0.160883 0.3305794 -0.0847011
0.40661300000000006 0.010835400000000002 -0.3291641
0.57292 -0.1403506 -0.29033410000000004
0.118038 0.0455734 -0.3266501
0.57044 0.2101394 -0.12198210000000001
-0.062356999999999996 0.2769894 -0.1490121
-0.071258 0.2802394 -0.1527631
0.128632 0.0457494 -0.3269001
-0.09828400000000001 -0.46671760000000007 -0.2284521
-0.21521300000000002 0.1984594 -0.24673810000000002
0.159639 0.2565294 -0.21018409999999998
0.42640300000000003 0.2891494 -0.1473411
0.416242 0.0089544 -0.32713610000000004
0.438268 -0.0808846 -0.3728311
0.4301630000000001 -0.07621460000000001 -0.3779051
0.42166400000000004 -0.0717416 -0.3824421
0.41319800000000007 -0.06728060000000001 -0.38688410000000006
0.404617 -0.0634476 -0.3909361
0.7530070000000001 -0.28978160000000003 -0.0931141
0.09436900000000001 0.1729194 -0.2810711
0.426103 0.007556400000000001 -0.3257491
0.050345 0.3090594 -0.0624961
0.062144000000000005 0.3113694 -0.0652621
0.073938 0.31361940000000005 -0.06803010000000001
0.085817 0.3155694 -0.07067810000000001
0.09756500000000001 0.3180894 -0.0735171
0.10932200000000002 0.3204694 -0.0762871
0.121593 0.32331940000000003 -0.0798351
0.132825 0.32536940000000003 -0.0818911
0.145145 0.3280294 -0.0854001
0.15699300000000002 0.3301294 -0.08811010000000001
0.168335 0.33187940000000005 -0.09005210000000001
0.180186 0.33397940000000004 -0.0927541
0.19154100000000002 0.3357194 -0.0947361
0.202932 0.3373894 -0.0966511
0.21395200000000003 0.33814940000000004 -0.0977051
0.224979 0.3388994 -0.0987611
0.23597800000000002 0.3398294 -0.09984110000000002
0.247004 0.3404994 -0.10086210000000001
0.257653 0.3407194 -0.10113710000000001
0.26823400000000003 0.34097940000000004 -0.10144510000000001
0.279297 0.3414994 -0.1023621
0.289908 0.3416294 -0.1026041
0.300547 0.3416694 -0.10278910000000002
0.311182 0.3415594 -0.1029401
0.32181600000000005 0.3413394 -0.1030211
0.332035 0.34065940000000006 -0.10238210000000002
0.342305 0.3401294 -0.1017881
0.352179 0.3386694 -0.1002721
0.362032 0.3372294 -0.0987711
0.371902 0.3358494 -0.0972881
0.38175400000000004 0.3342994 -0.0957371
0.39125800000000005 0.3322694 -0.09344910000000001
0.400956 0.33021940000000005 -0.0917071
0.41008100000000003 0.32748940000000004 -0.08856810000000001
0.419499 0.3251294 -0.08615210000000001
0.43624700000000005 0.006690400000000001 -0.3247051
0.44618399999999997 0.0053784 -0.32349610000000006
0.456049 0.0038964 -0.32194410000000007
0.465712 0.0022074 -0.3197101
-0.209008 0.2507494 -0.22141510000000003
0.44928900000000005 0.1326494 -0.2586121
0.07984400000000001 0.12475940000000002 -0.30986810000000004
0.08936 0.1230494 -0.3083981
