# .PCD v0.7 - Point Cloud Data file format
VERSION 0.7
FIELDS x y z
SIZE 4 4 4
TYPE F F F
COUNT 1 1 1
WIDTH 1135
HEIGHT 1
VIEWPOINT 0 0 0 1 0 0 0
POINTS 1135
DATA ascii
0.06262540000000001 0.01773794 0.00544559
0.0620193 0.01857894 0.00520509
0.06138620000000001 0.019456940000000002 0.00497959
0.0607369 0.02037894 0.00477499
0.0600956 0.021172939999999998 0.0045208900000000005
0.0594355 0.02195694 0.00426969
0.0587721 0.022735940000000003 0.00401639
0.0580893 0.023497940000000002 0.0037593900000000005
0.057378900000000004 0.024137940000000004 0.0034763899999999998
0.0566709 0.024869940000000004 0.0032226900000000003
0.055948000000000005 0.02554194 0.00295379
0.055214299999999994 0.026206939999999998 0.0026852900000000003
0.054466099999999996 0.02680694 0.00239659
0.0537151 0.027441939999999998 0.0021273900000000003
0.052946400000000005 0.02801694 0.0018403900000000001
0.05216300000000001 0.028555940000000002 0.00153249
0.051397899999999996 0.02916194 0.00126689
0.0505788 0.02964794 0.00096189
0.049766700000000004 0.030138940000000003 0.00065409
0.0489432 0.030610940000000003 0.00034779
0.0480905 0.031031939999999997 2.2290000000000002e-05
0.0472535 0.03148394 -0.00028311
0.046385699999999995 0.031874940000000004 -0.00060771
0.0455443 0.03231094 -0.00090871
0.0446683 0.03268894 -0.00123211
0.0438348 0.03313894 -0.00153541
0.0429331 0.03347394 -0.00188291
0.0420564 0.03384594 -0.00220461
0.041162599999999994 0.03416794 -0.0025215100000000002
0.0402455 0.03447294 -0.00286891
0.0393167 0.03473694 -0.00320741
0.0383827 0.03497794 -0.00354331
0.0374102 0.03516694 -0.00390321
0.0364379 0.03535594 -0.00426321
0.03541 0.03543994 -0.00463991
0.034427599999999996 0.03555694 -0.00498831
0.0333438 0.03553694 -0.00539921
0.032254 0.035511940000000006 -0.00581321
0.0312142 0.035532940000000006 -0.00619571
0.030126800000000002 0.03547194 -0.0066021100000000004
0.0289804 0.03534594 -0.00703901
0.0278945 0.035244939999999995 -0.00743701
0.026695000000000003 0.03500594 -0.00789211
-0.0625151 0.0017810400000000002 0.00945729
-0.0626608 0.00178084 0.00846309
-0.0018829 0.011787939999999998 -0.03026661
-0.0603367 0.00429854 -0.00452521
-0.061281100000000005 0.00435604 -0.00252251
0.0763552 -0.02891966 -0.00936381
-0.0467841 0.08264694 -0.06297781
-0.044482999999999995 0.08266994000000001 -0.06495291
-0.0536637 0.00935794 -0.014539310000000001
-0.0603944 0.009807940000000001 0.009416790000000001
-0.0380563 -0.00277106 -0.027466910000000004
-0.0660332 0.03172094 0.01931969
-0.0595636 0.01516494 0.01142249
-0.0407031 0.07140194 -0.06494481
-0.049642799999999994 0.014654940000000002 -0.015592410000000001
-0.048766699999999996 0.014590939999999998 -0.01654871
-0.0662412 0.020852940000000004 0.01036149
-0.0660506 0.020836939999999998 0.01136349
-0.065808 0.02084494 0.01236129
-0.0613586 0.05633894 0.014145190000000002
-0.0607026 0.028716940000000003 -0.009670910000000001
-0.060013500000000004 0.02869294 -0.01068931
-0.0131409 0.03331494 0.00213949
-0.0341479 0.06058494 -5.031e-05
0.012575600000000001 0.03374894 0.008530290000000001
0.0141533 0.03329994 0.01346249
0.029999699999999997 0.03296094 0.01918819
0.0478716 0.02898294 0.01706649
0.020654400000000003 0.03464694 0.01433979
0.0216961 0.03459594 0.01471919
-0.0083555 0.032220939999999997 0.0038836900000000004
-0.0187892 0.03623494 0.008881090000000001
0.028175400000000003 0.00384234 0.04114839
0.0290042 0.00222974 0.04297779
0.0461827 0.02986294 0.01644989
-0.0572704 0.05669194 0.01979409
0.0113771 0.03345994 0.00809519
0.0277112 0.00523394 0.03799089
-0.026132700000000002 0.059648940000000004 0.00287719
-0.05123230000000001 0.060104939999999996 0.00261389
0.0101727 0.03320294 0.00766409
-0.0006147 0.08643494 -0.01816291
-0.0021339 0.08556894 -0.01877201
-0.0036442000000000002 0.08458894000000002 -0.01933771
-0.0053504 0.08332294 -0.01995151
0.0018812000000000002 -0.01555466 0.04407729
-0.05965550000000001 0.05776694 0.01149999
-0.0360287 0.05954894 0.01962639
-0.0003552 0.027464940000000004 0.01419429
0.0089125 0.03284394 0.0072118899999999994
0.0138691 0.03438494 0.006084389999999999
-0.036917399999999996 0.06726794 -0.031465610000000005
-0.0375229 0.06816894 -0.03168551
-0.0381879 0.06896494 -0.03192981
-0.0388592 0.06975094000000001 -0.032176010000000005
-0.0395314 0.07053294 -0.03242181
-0.040292 0.07115894 -0.03270731
-0.0410438 0.07176694 -0.03298311
-0.04180710000000001 0.07236194 -0.03326251
-0.0425776 0.07293594 -0.033555510000000004
-0.043450100000000005 0.07331794000000001 -0.03387001
-0.0443258 0.07368693999999999 -0.03419601
-0.0452563 0.07395894 -0.03453961
-0.046326799999999994 0.07406494000000001 -0.03490101
-0.047585800000000004 0.07371294 -0.03536851
-0.04885900000000001 0.07316594 -0.03588251
0.007767500000000001 0.03266794 0.00679439
-0.0037233 0.02582394 0.01745209
0.0247404 0.0056529399999999995 0.03690529
-0.028271099999999997 0.057254940000000004 0.01807669
-0.0296877 0.05870594 0.01753319
0.0064493 0.03220694 0.00633029
-0.0104975 0.02927594 0.01494839
-0.0483852 0.06055394 0.0021501899999999997
0.0051987000000000005 0.03181994 0.0058792900000000006
0.082836 -0.025952660000000002 0.01413949
0.0821425 -0.02522716 0.01390569
0.0814174 -0.024538160000000003 0.013639390000000001
0.0806091 -0.024020160000000002 0.01336569
0.0797554 -0.023597860000000002 0.013020490000000001
0.07881389999999999 -0.02335756 0.01265819
0.0778278 -0.02318936 0.01229589
0.0767372 -0.02326086 0.01188409
0.0755948 -0.023409160000000002 0.011461889999999999
0.07441779999999999 -0.02366886 0.011021890000000001
0.0734612 -0.023376860000000003 0.01064649
0.0729771 -0.022236859999999997 0.010479190000000001
0.0727653 -0.02058536 0.010409690000000001
0.0039933 0.03156294 0.00544449
0.0373501 0.03056894 0.021823290000000002
0.0165233 0.03011094 0.021670090000000003
-0.0519965 0.05971694 0.00088989
0.0080255 0.03176294 0.011276489999999998
-0.0536578 0.05787594000000001 -0.00406031
0.0122092 0.0027993400000000004 0.040048190000000004
0.0027916000000000004 0.03128794 0.00500659
-0.026671999999999998 0.06186394 0.00117879
-0.0276045 0.062113940000000006 0.00082619
-0.0287105 0.06209294 0.00046039
-0.029866700000000003 0.06194294 5.069e-05
0.0172578 0.03284394 0.01748629
-0.0572643 0.05671594 -0.0023675099999999998
-0.048779300000000005 0.05974094 -0.00814401
0.0015322 0.03094394 0.00455809
-0.015224 0.03335994 0.00442629
-0.0142164 0.03308694 0.00470859
-0.0093904 0.03209994 0.006463290000000001
-0.008453500000000001 0.03183494 0.00680149
-0.0075227 0.03156094 0.00714289
-0.0066322 0.03122694 0.00747169
0.0003236 0.03070294 0.00412479
0.0648031 0.01448594 0.007656990000000001
0.0642115 0.015460940000000001 0.00745059
0.06359630000000001 0.01635694 0.007230490000000001
0.0629635 0.01717294 0.00698549
0.0623405 0.01806294 0.0067631900000000005
0.0617081 0.01894294 0.00653979
0.0610752 0.01982194 0.0063137900000000005
0.0604354 0.02067694 0.006080090000000001
0.0597895 0.02147194 0.00582959
0.05913960000000001 0.022264940000000004 0.00557709
0.058458699999999995 0.02302994 0.0053222899999999995
0.0577612 0.02372794 0.00505429
0.0570527 0.02446094 0.00480049
0.0563461 0.02514894 0.00453159
0.0556318 0.02583194 0.004260590000000001
0.0548924 0.026481940000000002 0.00398959
0.0541369 0.027081940000000002 0.0037016900000000005
0.053369799999999995 0.027662939999999997 0.00342069
0.0525957 0.028236940000000002 0.00312849
0.051830299999999996 0.028823940000000003 0.00284089
0.05105470000000001 0.02939094 0.0025504900000000003
0.0502681 0.02994394 0.00226429
0.0494445 0.030418940000000002 0.00196019
0.0486183 0.03088894 0.00165289
0.0477625 0.031298940000000004 0.0013319900000000001
0.046966 0.03174994 0.00112749
0.046064299999999996 0.03215594 0.00070109
0.045216599999999996 0.03257794 0.00039679
0.0443501 0.03296994 7.409e-05
0.0434777 0.03335794 -0.00025041
0.0426073 0.03373794 -0.0005743100000000001
0.041734400000000005 0.03411294 -0.0008773100000000001
0.0408448 0.03445994 -0.0012170100000000001
0.0399158 0.03471994 -0.00155831
0.0389917 0.035002939999999996 -0.00189961
0.038020700000000004 0.03519494 -0.0022576099999999997
0.0370884 0.03543794 -0.00259391
0.0361119 0.03561994 -0.00295461
0.035086400000000004 0.035698940000000005 -0.00332971
0.0340609 0.03578394 -0.0037051099999999997
0.0330267 0.03583094 -0.00408291
0.0319386 0.03580494 -0.00449701
0.0309026 0.035801940000000004 -0.004875610000000001
0.029811800000000003 0.03577994 -0.00528741
0.0286625 0.03565794 -0.00572391
0.0275785 0.03553994 -0.006119909999999999
0.0263754 0.03530594 -0.006573710000000001
0.0252163 0.03506094 -0.00708201
0.024034100000000003 0.03487494 -0.00744941
0.0228362 0.03461594 -0.00790071
-0.06675690000000001 0.030267940000000004 0.00431559
-0.0665386 0.030261939999999998 0.0033146900000000003
-0.0616301 0.00437914 -0.00152511
0.049218700000000004 0.02530494 -0.014832209999999998
-0.0668914 0.03027994 0.005312590000000001
0.0494879 0.021864940000000003 -0.01913281
0.051191600000000004 0.021077940000000003 -0.01829121
-0.060122999999999996 0.00978794 0.01040629
-0.0597959 0.00979094 0.01141699
-0.0594339 0.00977794 0.01241739
-0.0607032 0.00976494 0.00143309
-0.060472000000000005 0.00975194 0.00043649
-0.060857900000000006 0.00978694 0.00242539
-0.0070428999999999995 0.027196940000000003 -0.016372610000000003
-0.0600109 0.01519294 0.01041019
-0.0482125 0.05470794 -0.03581721
-0.0663514 0.03171694 0.01831369
-0.0500286 0.05899294 -0.02384451
-0.0443183 0.06156194 -0.05285901
-0.06526130000000001 0.03296694 0.00031749
-0.0671622 0.03306894 0.01130069
-0.0024691 0.08476994 -0.02196971
-0.0214663 0.07177094 -0.01289121
-0.0512616 0.06308894 -0.028868010000000003
-0.0008162 0.03054994 0.00371059
-0.045412600000000004 0.06104894 0.004651290000000001
0.0129487 0.03303594 0.01303469
-0.0338199 0.06046994 -0.00428141
0.032097099999999996 0.02931694 0.02427239
0.0194926 0.03454494 0.01393219
0.0136516 0.03347294 0.011826890000000001
0.0088543 0.03241994 0.010159089999999999
-0.0018892000000000002 0.03028994 0.0062597899999999995
0.0271726 0.00419454 0.04083799
-0.0019048000000000001 0.03049494 0.00330929
-0.0598828 0.05633794 0.00114059
-0.0614136 0.05674394000000001 0.00497629
-0.0255254 0.05873894 0.00309609
-0.0028841 0.030631940000000003 0.00294649
-0.017843 0.03543994 0.00186719
-0.036620900000000005 0.05932294 0.02087469
-0.0038618000000000003 0.03082194 0.00258939
-0.0014668 0.08578894000000001 -0.01692741
-0.0029032999999999997 0.08495794 -0.01761941
-0.0043276 0.08418894 -0.01815971
-0.0060504 0.08300993999999999 -0.01877651
0.0044869 -0.0072391600000000006 0.045468789999999995
0.0019715 -0.00467736 0.040853190000000005
-0.0581823 0.058378940000000004 0.01196839
-0.036965200000000004 0.05981194000000001 0.019288490000000002
-0.0047386 0.03117394 0.00226299
-0.0056687 0.03144694 0.0019196900000000002
-0.0362077 0.06535794 -0.02977151
-0.0367743 0.06635694 -0.02997491
-0.037360000000000004 0.06727794000000001 -0.03019221
-0.037993400000000004 0.06815894 -0.030419610000000003
-0.038659 0.06895393999999999 -0.03066481
-0.0393472 0.06971994 -0.03091841
-0.0400622 0.07041394000000001 -0.03117881
-0.0408103 0.07104594 -0.03146461
-0.041591199999999995 0.07161394 -0.03174841
-0.042393200000000006 0.07211494 -0.032048610000000005
-0.0432057 0.07261194 -0.032347009999999995
-0.0440372 0.07307594 -0.03265711
-0.0449606 0.07336094 -0.032993009999999996
-0.0460175 0.07347394 -0.03335521
-0.047297700000000005 0.07313194 -0.03380861
-0.048516300000000005 0.07268294 -0.03430861
-0.0065562 0.03178094 0.00159799
-0.021972000000000002 0.03769294 0.01652599
0.0258065 0.005485940000000001 0.03728099
-0.0278662 0.05610794 0.01825109
-0.018335999999999998 0.02724494 0.01662259
-0.017501100000000002 0.026784940000000004 0.01694459
-0.0096152 0.02892394 0.015276989999999999
-0.045099799999999995 0.053511939999999994 0.03147799
-0.0074859 0.03206794 0.00125299
-0.0083706 0.032415940000000004 0.00093019
0.0813768 -0.02578996 0.015082990000000001
0.0806119 -0.02519246 0.01480899
0.0798179 -0.024659559999999997 0.01448749
0.07894330000000001 -0.024279860000000004 0.01416879
0.0779595 -0.024067460000000002 0.013839490000000001
0.0770231 -0.023866360000000003 0.01345789
0.0758773 -0.02400266 0.013040689999999999
0.0747349 -0.02417226 0.01261069
0.0735808 -0.02433716 0.01217989
0.0727785 -0.02372486 0.01185619
0.072418 -0.022267260000000004 0.01174629
-0.0093553 0.03260594 0.00057269
-0.0627147 0.04406294 0.019234789999999998
-0.0122321 0.031437940000000004 0.00986769
-0.0184358 0.036147939999999996 0.00458579
-0.0190085 0.03713594 0.00436499
-0.0259327 0.05656694 0.00733389
0.007553 0.03063894 0.01405199
0.0101402 0.03145194 0.014947390000000001
0.0112677 0.03166994 0.015379290000000002
0.0125308 0.032026940000000004 0.015817889999999998
0.013747700000000002 0.03226194 0.01623579
0.014903900000000001 0.03240594 0.01664259
0.0160444 0.03259594 0.01706259
-0.0102925 0.032847940000000006 0.00022919
-0.050426599999999995 0.058598939999999995 -0.00876331
-0.0112321 0.033095940000000004 -0.00011391
-0.0057041 0.03093594 0.007809190000000001
0.0046283 0.030309940000000004 0.01155849
0.0033128000000000003 0.02983694 0.01110129
0.0180499 0.033531939999999996 0.01632879
0.0169009 0.03336594 0.01591309
0.0157527 0.033184939999999996 0.01549679
-0.0122162 0.03326994 -0.00047401
0.0650737 0.01387094 0.00919519
0.0645004 0.01479594 0.008975490000000001
0.063911 0.01577094 0.008768590000000001
0.06329950000000001 0.016670940000000002 0.00854749
0.062681 0.01756294 0.008321690000000001
0.0620589 0.01844994 0.008096790000000001
0.061417900000000004 0.01932294 0.00787099
0.0607841 0.02019094 0.007641790000000001
0.0601401 0.020985939999999998 0.007387690000000001
0.0594849 0.02177194 0.00713769
0.0588275 0.02255794 0.0068836900000000005
0.05813170000000001 0.02330494 0.0066286900000000004
0.05742130000000001 0.02398894 0.0063600900000000005
0.0567188 0.024722940000000002 0.00610479
0.0559958 0.02535994 0.00581919
0.0552684 0.02602794 0.00555039
0.0545401 0.02669194 0.005279089999999999
0.0537864 0.027293940000000003 0.004991590000000001
0.0530401 0.02793494 0.00472159
0.052276600000000006 0.02852194 0.00443449
0.0515032 0.02909694 0.00414529
0.05070020000000001 0.029604940000000003 0.0038410899999999997
0.0499181 0.030164939999999998 0.0035526900000000003
0.0490952 0.03064394 0.0032475900000000003
0.0482669 0.03110994 0.00294289
0.047435200000000004 0.031569940000000005 0.0026382899999999997
0.0465777 0.03197994 0.0023144899999999998
0.04574430000000001 0.03243794 0.00200839
0.0448642 0.03280094 0.0016833899999999999
0.0440272 0.03324894 0.00137869
0.043153699999999996 0.03362794 0.00105779
0.042278399999999994 0.03400894 0.00073609
0.0414006 0.03436594 0.00041209000000000005
0.040483000000000005 0.034671940000000005 6.999e-05
0.0395495 0.03492594 -0.00026831
0.038624 0.03519094 -0.00060731
0.0376524 0.03539094 -0.0009686100000000001
0.0367216 0.03563794 -0.00130551
0.0357438 0.035795940000000005 -0.00166161
0.0347219 0.035932940000000003 -0.00204611
0.033738800000000006 0.036008939999999996 -0.00239001
0.0327135 0.036094940000000006 -0.00276681
0.031624400000000004 0.03606594 -0.0031767099999999997
0.0305339 0.03603394 -0.00358641
0.0294394 0.035995940000000004 -0.00399751
0.0283529 0.03590194 -0.00439741
0.0272095 0.035731940000000004 -0.00482351
0.026004700000000002 0.03552994 -0.00528161
0.024860300000000002 0.03535894 -0.00570901
0.0236581 0.035115940000000005 -0.00615901
0.022458300000000004 0.03484594 -0.0066094100000000005
0.0212621 0.03457594 -0.00705511
0.0200683 0.03427994 -0.007496310000000001
-0.062996 0.01932794 -0.00262901
-0.063228 0.04542894000000001 0.01923579
-0.0635604 0.05085694 0.00420339
-0.060968 0.04392994 0.00025779
0.04155350000000001 0.00886794 -0.02917091
-0.0639917 0.04264094 0.011248590000000001
-0.060842799999999995 0.00846694 0.010416090000000001
-0.061166700000000004 0.00846394 0.00941139
-0.0605663 0.00844494 0.01140629
-0.0574447 0.008223939999999999 -0.00958231
-0.057090800000000004 0.00820594 -0.01059691
-0.061054500000000005 0.00978794 0.00342689
-0.060309100000000004 0.005674940000000001 -0.00357001
-0.0578461 0.00414924 -0.01054311
-0.0572548 0.00410064 -0.01253211
-0.010155099999999999 0.08032994 -0.01792951
-0.0467274 0.06164294 -0.037863509999999996
-0.0652843 0.031721940000000004 0.02330529
-0.0533352 0.05739394 -0.00570661
-0.0658363 0.03160894 0.00131879
-0.0439229 0.08539494 -0.06586841
-0.040382100000000004 0.06855194 -0.06598111000000001
-0.054516999999999996 0.04099694 -0.01171471
-0.0502191 0.05338794 -0.01594111
-0.0600325 0.04389094 -0.0037506099999999997
-0.009987300000000001 0.03187894 0.00772679
-0.0181383 0.028775940000000003 0.01516949
-0.013204800000000001 0.03341894 -0.00083591
0.027162600000000002 0.02671994 0.026992790000000003
-0.041123200000000006 0.060035939999999996 -0.00836561
-0.040304 0.059545940000000006 -0.00805791
0.006259000000000001 0.03157194 0.00918699
0.0075773 0.03203594 0.00964809
0.0050673 0.03128494 0.00874729
0.001392 0.03041794 0.0074465899999999995
-0.020412499999999997 0.03871894 0.0008678900000000001
-0.0431785 0.05538194 0.029129489999999997
-0.042699999999999995 0.060534939999999995 -0.00020281000000000002
0.0267189 0.00542394 0.03764359
-0.0526178 0.059705940000000006 0.015341190000000001
0.027946300000000004 0.03429394 0.01698519
-0.008428 0.030501939999999998 0.01125179
-0.014191400000000002 0.03356694 -0.0011997099999999999
-0.0151319 0.03378494 -0.00153841
-0.0038012000000000002 0.08418194 -0.01650281
-0.0051683 0.08350593999999999 -0.017028110000000003
-0.0067447 0.08264594000000001 -0.017579110000000002
-0.0082208 0.08178394000000001 -0.01813731
-0.0478043 -0.00238916 0.030992890000000002
-0.0567641 0.05885994 0.012414389999999999
-0.037952900000000005 0.059968940000000005 0.01893859
-0.0468693 0.06153194 -0.010416410000000001
-0.0161652 0.03385494 -0.00195321
-0.036680000000000004 0.06534594 -0.02850361
-0.0372407 0.06634994 -0.02870711
-0.0378392 0.06726193999999999 -0.028925410000000002
-0.0384888 0.06812594 -0.02916381
-0.039123899999999996 0.06899394 -0.029398010000000002
-0.0398442 0.06967294 -0.02966631
-0.04060660000000001 0.07026594 -0.029945810000000003
-0.0413753 0.07084194 -0.030233910000000003
-0.0421966 0.07132194 -0.030535009999999998
-0.0429758 0.07188294 -0.030830510000000002
-0.043788600000000004 0.07237494 -0.031128110000000004
-0.044719300000000003 0.07265894 -0.03146451
-0.0457292 0.07286494 -0.03179891
-0.0469383 0.07262994 -0.03224261
-0.048176300000000005 0.07219894 -0.032738710000000004
-0.0170158 0.03422394 -0.00228501
-0.0134023 0.028732940000000002 0.01540319
-0.0485815 0.06090394 0.00645189
-0.028894000000000003 0.05814594 0.01783069
-0.0164587 0.02674694 0.01732559
-0.0413662 0.06116394 0.01044409
-0.020833400000000002 0.03936494 0.009539490000000001
-0.0179612 0.03460694 -0.0025675100000000003
0.0812158 -0.027262460000000002 0.01646479
0.0805152 -0.026543260000000003 0.01623879
0.0797441 -0.025957659999999997 0.01595929
0.0789544 -0.025444460000000002 0.01561019
0.0780307 -0.02511816 0.015321689999999999
0.0770961 -0.02485246 0.014976689999999999
0.0760501 -0.02478596 0.01459809
0.0749624 -0.02486276 0.014180690000000001
0.07382670000000001 -0.025032960000000003 0.013748590000000002
0.0728804 -0.024793660000000002 0.01338509
0.0721048 -0.024210560000000002 0.01309869
0.0718865 -0.022471860000000003 0.01302319
-0.018670500000000003 0.03516594 -0.00286361
-0.0490891 0.05419894 0.03011529
0.0165065 0.033726940000000004 0.01430409
-0.0196135 0.038030940000000006 0.00412849
-0.0027356999999999998 0.02930294 0.010373190000000001
0.0062316 0.03017894 0.01359429
0.0088112 0.031012940000000003 0.014495690000000002
-0.0565616 0.05810794 0.0007768899999999999
-0.0479495 0.06042994 0.00084939
-0.036974900000000005 0.06085794 0.00475199
0.028467799999999998 0.03058394 0.02296259
0.0339092 0.02868594 0.02493239
0.0227546 0.03197894 0.02091449
-0.0470372 0.05283894 0.032351990000000004
-0.0205516 0.03942094 0.0022916900000000003
-0.0038938 0.03030594 0.00847549
0.0145512 0.03292094 0.015066790000000002
0.0263414 0.03296694 0.01929709
0.0291403 0.03219494 0.020328390000000002
0.0253504 0.033143940000000004 0.01894719
0.030025400000000004 0.031860940000000004 0.02067189
0.0191438 0.033594940000000004 0.01672559
-0.019297599999999998 0.03598094 -0.0031233100000000002
0.0647529 0.01409794 0.010498190000000001
0.0641737 0.01508694 0.01029099
0.0635847 0.016063940000000002 0.01008319
0.0629721 0.01695994 0.00985879
0.0623507 0.01785194 0.00963549
0.06173650000000001 0.01874394 0.00941139
0.06111010000000001 0.01962594 0.00918529
0.0604695 0.020479940000000002 0.00894779
0.0598191 0.021270940000000002 0.00869729
0.059152500000000004 0.022045940000000003 0.008443589999999999
0.0584791 0.02281494 0.00819109
0.0577926 0.02356694 0.00793609
0.0570824 0.024250940000000002 0.00766559
0.0563687 0.024933939999999998 0.00739599
0.0556585 0.02562194 0.00712589
0.054925800000000004 0.02628594 0.00685739
0.0541778 0.026891940000000003 0.0065702899999999995
0.0534394 0.02754894 0.006300590000000001
0.0526854 0.028142939999999998 0.00600999
0.0519123 0.02871494 0.00572369
0.051137600000000005 0.02928694 0.00543499
0.0503524 0.02984094 0.00514849
0.049566900000000004 0.030397940000000002 0.00485779
0.0487243 0.03082594 0.00453589
0.0478927 0.03128794 0.00423109
0.0470614 0.03174794 0.0039236900000000005
0.046231400000000006 0.03220694 0.00362029
0.045372300000000004 0.03262094 0.00329679
0.0444997 0.03300194 0.00297289
0.043655 0.03342794 0.0026690900000000003
0.0427454 0.03375394 0.0023271900000000002
0.0419126 0.03420294 0.00202259
0.0409948 0.03450694 0.00168029
0.04011510000000001 0.03486394 0.0013602900000000001
0.0391858 0.035128940000000004 0.00101849
0.038251400000000005 0.03537594 0.0006820900000000001
0.0372797 0.03556994 0.00032129
0.0363504 0.03581494 -1.651e-05
0.035376200000000003 0.036003940000000005 -0.00037441000000000004
0.0343516 0.03610194 -0.00075351
0.0333723 0.03620894 -0.00110241
0.032292 0.03621094 -0.0014976100000000001
0.0312567 0.03625094 -0.00188331
0.030112000000000003 0.036147939999999996 -0.00231591
0.0290205 0.03609294 -0.0027220100000000004
0.027929100000000002 0.03601194 -0.00312571
0.0268389 0.03594294 -0.00353031
0.025697 0.03575894 -0.00395351
0.024490599999999998 0.03553994 -0.00440541
0.0232876 0.03529994 -0.004855610000000001
0.0221503 0.03510494 -0.00527771
0.020886900000000003 0.034794939999999996 -0.00575581
0.019687 0.03452394 -0.00620161
0.0184358 0.03414794 -0.00666781
0.0171829 0.03377894 -0.007135310000000001
-0.0459899 0.08539994000000001 -0.06392421
-0.0619841 0.004468440000000001 0.01144039
0.0078836 0.01066794 -0.03157531
-0.0411492 0.01282994 -0.02175941
-0.0542104 0.03720594 -0.012878210000000001
-0.041157000000000006 0.01990694 -0.01834371
0.0058847000000000005 0.01063694 -0.03141241
-0.037276500000000004 0.04323794 -0.01641411
-0.020119699999999997 0.01041194 -0.028997910000000002
-0.038164500000000004 0.01860794 -0.02088661
-0.052979200000000004 0.01487594 0.03362419
-0.0431233 0.01983594 -0.01750691
-0.0491873 0.03731694 -0.016017410000000003
-0.0221149 0.01037794 -0.02860681
-0.0154461 0.07144094 -0.01932741
0.0016273000000000001 0.07153094 -0.02662711
0.04694740000000001 0.00218964 -0.03140311
0.0088847 0.01065494 -0.03153591
-0.0253268 0.05643194000000001 -0.012500210000000001
0.012488200000000001 0.08192394 -0.03625011
0.007609200000000001 0.07304494 -0.028811510000000002
-0.00038199999999999996 0.07301194 -0.02687971
-0.028041399999999998 -0.00828806 -0.030558909999999998
-0.036918400000000004 -0.06077546 0.00792589
-0.0362859 -0.060634560000000004 0.00878549
-0.0379769 -0.06017436 0.01717399
-0.0394018 -0.059859260000000004 0.01989779
-0.0402339 -0.059401960000000004 0.02235919
-0.040225000000000004 -0.059272460000000006 0.02374919
-0.040061 -0.05918006 0.02496549
-0.0399251 -0.05909296000000001 0.02619429
-0.039817 -0.05893376 0.02757119
-0.0395372 -0.058842660000000005 0.02870419
-0.0391765 -0.05879586 0.02970199
-0.033032 -0.00839866 -0.029215610000000003
-0.0382131 -0.058687760000000005 0.03157209
-0.037632900000000004 -0.05860216000000001 0.03246739
-0.0552685 0.04011394 -0.01130361
-0.0363691 -0.058553860000000006 0.03402719
-0.03561 -0.05852656 0.03468819
-0.0348236 -0.05856046 0.03549029
-0.0341238 -0.05849956 0.03603709
-0.0333277 -0.05848896 0.036659989999999996
-0.0324831 -0.05846296 0.03718979
-0.031244900000000003 -0.058571859999999996 0.03745909
-0.0301652 -0.05857486 0.03771879
-0.0288678 -0.05865456 0.03786109
0.0146715 0.00585094 0.03501349
-0.0516611 0.02520494 0.04246709
-0.059882 -0.00282086 0.01765339
-0.008059199999999999 -0.00655296 -0.03337811
-0.0202764 -0.05930826 0.03615899
-0.0179776 -0.05950176 0.03522459
-0.0511879 0.012485940000000001 0.02519989
-0.052216 0.04163994 -0.013535410000000001
0.047938299999999996 0.00216774 -0.031111510000000002
0.0084653 0.08636294 -0.03332491
-0.0123716 0.06546894 -0.021065109999999998
0.0459431 0.0022095400000000003 -0.03167291
0.0008960999999999999 0.00353004 -0.03308701
0.0188723 0.012154940000000001 -0.03161761
-0.0502112 0.03875194 -0.015160110000000001
-0.048193099999999996 0.03587594 -0.01654241
-0.023122 0.010378940000000001 -0.02850831
0.044936 0.00220884 -0.03178441
-0.0382081 0.03301594 -0.017676110000000002
-0.0211124 0.01038294 -0.028839410000000003
0.0489483 0.00214474 -0.030624509999999997
-0.030253199999999997 0.03290994 -0.015378210000000002
-0.010355099999999999 0.06548994000000001 -0.02193741
0.0025738000000000002 -0.06004476 0.04317999
-0.0591331 0.02056494 0.03836599
-0.041192 0.03447894 -0.01795391
0.0138842 0.01067894 -0.03155601
-0.045613400000000005 -0.05996866 -0.00190381
-0.0453061 -0.05986916 -0.00077691
-0.044835900000000005 -0.05983006 0.00014729
-0.0442236 -0.05982186 0.0009413900000000001
-0.043579 -0.05988346 0.00181669
-0.0429215 -0.05973916 0.00248179
-0.042375100000000006 -0.059761360000000006 0.00330299
-0.0417043 -0.05968006 0.00408079
-0.0410356 -0.05963556 0.00484349
-0.040372000000000005 -0.05962366 0.00559269
-0.0396206 -0.05959176 0.00626869
-0.0389142 -0.059571360000000004 0.00697549
-0.0382566 -0.05956886 0.007722090000000001
-0.0375176 -0.05953756 0.00839749
-0.0369994 -0.05944796 0.00930069
-0.036359499999999996 -0.059501359999999996 0.01000719
-0.0356632 -0.059463260000000004 0.01071019
-0.0320566 -0.028485160000000002 0.02620059
-0.038157500000000004 -0.05872636 0.01607389
-0.0390746 -0.05845046 0.01838569
-0.0397363 -0.058213860000000006 0.02044729
-0.040138999999999994 -0.058014159999999995 0.02225409
-0.040244999999999996 -0.05792376 0.023551890000000002
-0.039973800000000004 -0.05780726 0.02477509
-0.039946100000000005 -0.05764796 0.026245189999999998
-0.0396923 -0.05756826 0.02738609
-0.039453100000000005 -0.057463860000000005 0.028591190000000002
-0.039013 -0.05740186 0.029559890000000002
-0.0385147 -0.05735066 0.030455489999999998
-0.0379868 -0.05729056 0.03133819
-0.037515900000000005 -0.05724266 0.03229829
-0.0369709 -0.05719686 0.033171490000000005
-0.0363405 -0.057160060000000006 0.033962490000000005
-0.0355647 -0.05715366 0.03460229
-0.034821399999999995 -0.05712826 0.03527429
-0.034125 -0.057112460000000004 0.03599379
-0.033352400000000004 -0.057102959999999994 0.03664679
-0.0325317 -0.05709496 0.03722289
-0.0315089 -0.05713056 0.03764749
-0.030440200000000004 -0.05715986 0.03796459
-0.0291458 -0.057232960000000006 0.03812089
-0.0549196 0.02226894 0.03972329
-0.0513427 -0.013334760000000001 0.026388790000000002
-0.0537761 0.04018094 0.04131709
-0.0493546 0.06242094 -0.017310509999999998
-0.0501763 -0.00379046 0.029170289999999998
-0.0381425 0.02423794 -0.01776341
-0.0160869 -0.05836156 0.03508089
-0.013433500000000001 -0.058680960000000004 0.03396479
-0.0121177 -0.058801360000000004 0.03406989
-0.011471 -0.05871186 0.03470919
-0.0108466 -0.058673460000000004 0.03547149
-0.0101697 -0.05866206 0.03619429
-0.0095102 -0.058655559999999995 0.03693359
-0.0451757 0.01505794 0.03346589
0.026924299999999998 -0.00568156 -0.043564809999999995
0.0299431 -0.00573596 -0.04247621
-0.0070607 -0.05848336 0.04015249
-0.006454800000000001 -0.05845306 0.04096559
0.027888000000000003 0.00925894 -0.030929210000000002
-0.0048784 -0.05844216000000001 0.04223529
-0.004042700000000001 -0.05845966 0.04283029
-0.0032790000000000002 -0.05841706000000001 0.04347479
-0.0024904000000000003 -0.058414060000000004 0.04411249
-0.0015812 -0.05840656 0.04461059
-0.0005086 -0.05841436 0.04491549
0.0007079 -0.05846806 0.045103590000000006
-0.06461070000000001 0.021311939999999998 0.01685379
-0.0494204 -0.00377096 0.02982259
-0.0537423 -0.01204256 0.024516589999999998
-0.050271800000000005 -0.0064620599999999995 0.029333490000000004
-0.0512823 -0.010572459999999999 0.027653089999999998
-0.0493242 0.06936294 -0.028824010000000004
-0.048192000000000006 0.06938594000000001 -0.027154110000000002
-0.045799000000000006 -0.059141360000000004 -0.0074806099999999995
-0.0456868 -0.05904856 -0.00639501
-0.0456009 -0.05889016 -0.00498981
-0.0458415 -0.058630459999999995 -0.00307751
-0.0458176 -0.05850186 -0.0016942099999999998
-0.045503400000000006 -0.05844226 -0.00066151
-0.0448778 -0.058404660000000004 0.00014879
-0.044101999999999995 -0.058363759999999994 0.00084789
-0.043439 -0.05835236 0.00156249
-0.042728 -0.05832726 0.00226209
-0.0421122 -0.05822076 0.00304349
-0.041689699999999996 -0.05823466 0.00403679
-0.0410148 -0.058209960000000005 0.00480659
-0.0403839 -0.05817706 0.00556229
-0.0395975 -0.05817946 0.00620769
-0.038818899999999996 -0.05815306 0.00684499
-0.0380404 -0.05814896 0.007481290000000001
-0.0372394 -0.05813456 0.00809709
-0.0365887 -0.058082459999999995 0.00888199
-0.035853 -0.058048760000000005 0.00951819
-0.0352025 -0.05805286 0.01028079
-0.0346967 -0.05800846 0.01120439
-0.0379189 -0.05737566 0.01579569
-0.0384949 -0.05715376 0.01777139
-0.0394116 -0.056878960000000006 0.020082990000000002
-0.0396443 -0.05670816000000001 0.021721789999999998
-0.0394544 -0.05661186 0.02294159
-0.039432 -0.05648076 0.02432279
-0.039626600000000005 -0.05631636 0.025882290000000002
-0.0394602 -0.05621156 0.02710579
-0.0391609 -0.05612386 0.028241890000000002
-0.038666200000000005 -0.05604676000000001 0.029160590000000004
-0.038155 -0.05598236 0.03007999
-0.0376123 -0.05598596 0.03099259
-0.0371245 -0.05592186 0.03188849
-0.0366743 -0.055863060000000006 0.03285129
-0.0361186 -0.05581976 0.03370919
-0.0354448 -0.055791560000000004 0.03444139
-0.0346047 -0.05578926 0.03501999
-0.0338648 -0.055773960000000004 0.03568439
-0.0331609 -0.05575326 0.03639519
-0.0323804 -0.05574406 0.037032590000000004
-0.031459600000000004 -0.05574606 0.03758279
-0.0303912 -0.05578556 0.03792139
-0.055957 0.01076594 0.018961190000000003
-0.0485499 -0.014700560000000001 0.02788179
-0.0412227 -0.013270660000000002 0.03323909
-0.0100501 -0.00659696 -0.032869709999999996
-0.0621446 0.038528940000000005 0.03270709
-0.056786 0.038770940000000004 0.04010139
-0.056453699999999996 -0.01819856 0.01045539
0.009888599999999999 0.00924694 -0.03170771
-0.0133443 -0.057262060000000004 0.03381269
-0.0121331 -0.05733246 0.033999890000000005
-0.011570700000000001 -0.05728176000000001 0.03477549
-0.010914600000000002 -0.057268559999999996 0.03548899
-0.0102848 -0.05723346000000001 0.03626589
-0.0095936 -0.057212759999999994 0.03697819
-0.0089838 -0.05718096 0.03777449
-0.0084411 -0.057132959999999997 0.038644490000000004
-0.0078445 -0.05707896 0.039480390000000004
-0.0072463 -0.057047860000000006 0.04029489
-0.006673900000000001 -0.05699266 0.04114379
-0.005909 -0.05698926 0.04180269
-0.0049496 -0.057006259999999996 0.04226329
-0.004099 -0.057008859999999995 0.04283599
-0.0033964 -0.05698756000000001 0.04355069
-0.0026934999999999997 -0.05696566 0.044277790000000004
-0.0018016 -0.05697286 0.04481229
-0.0006857 -0.05699636 0.045035790000000006
0.000598 -0.05707286 0.04519989
0.0018161 -0.057126960000000004 0.04537729
-0.0435383 -0.01053976 0.03264769
-0.058172600000000005 -0.00136056 0.020145490000000002
-0.012045 -0.0066682600000000005 -0.03206031
0.0056852000000000005 -0.01982366 0.04466649
-0.0526765 0.04958894 0.03426269
-0.0566692 0.04947394 0.031186790000000002
-0.0488436 -0.010543960000000002 0.02945039
-0.0291012 0.00036844000000000004 -0.03051111
0.033893200000000005 0.01066894 -0.02972371
-0.0320799 0.00026424 -0.02928051
-0.033032900000000004 0.00021294 -0.028473510000000004
-0.0530319 0.01809394 -0.011468309999999999
-0.0582036 0.02039594 0.03867469
-0.0366362 -0.03418936 0.01258559
-0.0299236 0.029069940000000002 -0.01619341
-0.000364 0.02277494 -0.02182001
-0.0452402 -0.05771836 -0.00793311
-0.045133799999999995 -0.05760546 -0.006634510000000001
-0.045198600000000005 -0.05746676 -0.005162910000000001
-0.045773400000000006 -0.05724746 -0.00318961
-0.0455803 -0.05714716 -0.00197381
-0.045200300000000006 -0.05706296 -0.00096911
-0.044507000000000005 -0.05702566 -0.00022061000000000002
-0.043808299999999994 -0.057005860000000005 0.00048529000000000004
-0.043014000000000004 -0.05699656 0.00111249
-0.0422826 -0.05698356 0.0017924899999999999
-0.04159500000000001 -0.056958260000000004 0.00248809
-0.041207900000000006 -0.05689396000000001 0.00344319
-0.0407229 -0.05683446 0.00444499
-0.0399801 -0.056818160000000006 0.00515999
-0.0393042 -0.05679116 0.0058741900000000005
-0.0384797 -0.05679676 0.00647469
-0.037670300000000004 -0.05679476 0.00707819
-0.0367609 -0.05681266 0.0075839900000000005
-0.0361415 -0.05678146 0.00837889
-0.0353847 -0.05675286 0.00903419
-0.0347325 -0.05673736 0.00979749
-0.0341115 -0.05670266 0.01058969
-0.0330786 -0.05671416 0.01103859
-0.0373946 -0.05603566 0.01741119
-0.038468 -0.055463860000000004 0.01989009
-0.0387757 -0.05541596 0.021142789999999998
-0.0387257 -0.055358660000000004 0.022432789999999998
-0.0386641 -0.05523646 0.02371899
-0.0391207 -0.05503106 0.02550339
-0.0390206 -0.05490606 0.02672729
-0.0386978 -0.05482086 0.02777859
-0.0383335 -0.05474806 0.02882179
-0.037907 -0.05467966 0.02979519
-0.0373669 -0.05463596 0.030672790000000002
-0.036843100000000004 -0.05458376 0.03155459
-0.0364202 -0.05452746000000001 0.03256299
-0.0359179 -0.054470960000000006 0.03346499
-0.035243500000000004 -0.054439060000000004 0.03420099
-0.034465300000000004 -0.054426959999999996 0.03484239
-0.033592300000000005 -0.05443376 0.03538979
-0.0328054 -0.054420960000000004 0.03602639
-0.0320683 -0.05440816 0.03669349
-0.0312093 -0.05440086 0.03727499
-0.0463821 -0.01891726 0.027272789999999998
-0.0542873 0.05218194 0.030136490000000002
-0.0608559 0.04264794 0.03271769
-0.043204900000000004 -0.01608456 0.03089979
-0.0595135 0.04135394 0.03566189
-0.055844500000000005 0.04148394 0.03908519
-0.0015623000000000002 -0.02029156 0.033549890000000006
-0.053397 -0.013423959999999999 0.02421059
-0.0470986 -0.01894666 0.02657309
-0.0125868 -0.05593076 0.03317489
-0.012019 -0.05593036 0.03379599
-0.0115014 -0.05588976 0.03464889
-0.010854500000000001 -0.055866660000000005 0.03538189
-0.0103135 -0.05582096 0.03624879
-0.0096456 -0.05579596 0.036980490000000005
-0.008899 -0.05577986 0.03765489
-0.0084357 -0.055720660000000005 0.03859969
-0.0079016 -0.05567546 0.03947899
-0.0073617 -0.05562496 0.04036419000000001
-0.006705900000000001 -0.05559436 0.04113659
-0.0059581 -0.055579859999999995 0.041814590000000006
-0.005032 -0.05558946 0.04228809
-0.0040857 -0.05558986 0.04276739
-0.0033561999999999997 -0.05557576 0.04344219
-0.0026165 -0.05556806 0.04415499
-0.0017289 -0.05557396 0.044689889999999996
-0.0006471000000000001 -0.055615160000000004 0.04500559
0.0005828 -0.05567676 0.04516439
0.051980399999999996 -0.00637476 -0.03222651
-0.0618052 0.00108844 0.013772590000000001
-0.0008333 -0.017295460000000002 0.03698679
-0.027586400000000004 0.06577094 -0.00382621
-0.04647420000000001 0.00563194 0.02941809
0.010773999999999999 0.0032612400000000003 0.03748859
-0.0661794 0.02762994 0.03135809
-0.057463 0.04946194 0.030566589999999998
-0.0614061 0.00113374 0.01480589
-0.0609413 0.0011741400000000002 0.01575969
-0.0604091 0.0012074400000000002 0.01664049
-0.0599024 0.00124744 0.01753339
0.0005465 -0.01865886 0.03844909
-0.0270341 -0.00827406 -0.030643310000000003
-0.05208 0.01964194 -0.013131710000000001
-0.0020842 0.00065144 -0.033156210000000005
-0.023073299999999998 0.00041614 -0.03107541
-0.029875099999999998 -0.06016146 0.036277290000000004
-0.0375107 0.07151594 -0.06918411000000001
-0.040156599999999994 0.02716394 -0.01791871
-0.039134 0.02422594 -0.01780311
0.0375251 0.015358940000000001 -0.02811381
0.0752719 -0.02593716 -0.00639821
-0.0446549 -0.05655516000000001 -0.008368510000000001
-0.0443626 -0.05639926 -0.00701251
-0.0447004 -0.056143660000000005 -0.0056941100000000005
-0.0442555 -0.05608286 -0.00473311
-0.0451692 -0.05581416 -0.00241791
-0.044863 -0.05568476000000001 -0.00138071
-0.0442321 -0.05565086 -0.00057191
-0.043427600000000004 -0.05564526 6.649000000000001e-05
-0.042669 -0.05564906 0.0007386900000000001
-0.0418896 -0.05563966 0.00135769
-0.041151400000000005 -0.055636460000000006 0.00203569
-0.0406395 -0.05558086 0.0028755900000000004
-0.040142800000000006 -0.055545159999999996 0.00385389
-0.0394563 -0.055547360000000004 0.00459629
-0.0387885 -0.05550506 0.00533139
-0.0380039 -0.055495760000000005 0.00595449
-0.0371301 -0.05550216 0.006498589999999999
-0.036345999999999996 -0.055487060000000005 0.00712909
-0.035550899999999996 -0.05548406 0.00774919
-0.0348866 -0.05548946 0.00849419
-0.0340205 -0.05548666 0.00905599
-0.0333816 -0.05546766 0.00984669
-0.032660800000000004 -0.055392159999999996 0.010676989999999999
-0.047583 0.00029724 0.03069299
0.0228918 0.010720940000000002 -0.03138591
-0.038341599999999997 -0.054183260000000004 0.020615389999999997
-0.038251 -0.05405306000000001 0.02180849
-0.0380565 -0.05393676 0.02292779
-0.0386876 -0.05372946 0.02506239
-0.038577 -0.05360366 0.02627279
-0.0383272 -0.05351046 0.027402890000000003
-0.0379668 -0.05343526 0.028446090000000004
-0.0374966 -0.05332636 0.02946009
-0.0370197 -0.05331226 0.03029769
-0.0365059 -0.05325646 0.03118489
-0.0360507 -0.05319936 0.032145389999999996
-0.0356018 -0.05313986 0.033104390000000004
-0.0349838 -0.05310436 0.03390319
-0.0342287 -0.053077759999999995 0.03456899
-0.033326 -0.05309436 0.03507949
-0.0324526 -0.05309506 0.03562369
-0.031648800000000005 -0.05309886 0.036229290000000004
-0.030784 -0.053092860000000006 0.03678949
-0.059339199999999995 0.00128014 0.018391789999999998
-0.0587339 0.0013069400000000001 0.019220189999999998
-0.0613911 0.042619939999999995 0.03184129
-0.0012222 -0.013019959999999999 0.03864999
-0.0147655 0.07733694 -0.012680610000000002
-0.037044 -0.0070637600000000005 -0.02797221
-0.0540254 -0.01346046 0.02342799
-0.0255821 -0.05968706 0.036806290000000005
-0.0581385 0.00133764 0.020026790000000003
-0.0123766 -0.054547860000000004 0.032863090000000005
-0.0118518 -0.054539359999999995 0.03360159
-0.0112984 -0.05452386 0.03439939
-0.0107492 -0.054480360000000005 0.03523939
-0.0101478 -0.05444276000000001 0.03604469
-0.0095414 -0.05440586 0.03684209
-0.0087786 -0.05439806 0.03750749
-0.0082752 -0.05434656 0.03840109
-0.0077947 -0.05428926 0.03934579
-0.0072422 -0.05424466 0.04021529
-0.0065798 -0.05421036 0.04097409
-0.0058097 -0.05419346 0.04163219
-0.0048790000000000005 -0.054216160000000006 0.04211689
-0.0039156 -0.054225459999999996 0.042475189999999996
-0.0030235 -0.054246359999999993 0.043074690000000006
-0.0023362 -0.05421526 0.043807790000000006
-0.0014867 -0.05420276 0.044419389999999996
-0.0004997000000000001 -0.05423476 0.04482569
0.0006507 -0.054294760000000004 0.04505999
-0.0575397 0.00136964 0.02083259
-0.056896300000000004 0.0013938400000000001 0.02160659
-5.8e-05 -0.02165336 0.03491919
-0.0521598 0.00955694 0.02369409
-0.0653809 0.03030894 0.03191189
-0.0018526999999999999 -0.01739526 0.03516079
0.004496 -0.01688976 0.045736990000000005
-0.0640139 0.030379939999999998 0.03482679
-0.0623898 0.043905940000000004 0.02856299
-0.0022873 -0.01744236 0.03419339
-0.043925 -0.01327266 0.03169019
-0.0447924 -0.013271960000000001 0.031140189999999998
-0.0562313 0.00141964 0.022344990000000002
-0.0555919 0.00144544 0.023121489999999998
-0.0549121 0.00147174 0.023850790000000004
-0.0542081 0.00149284 0.02455769
-0.053497199999999995 0.0015129400000000002 0.02525759
-0.052766900000000005 0.00152994 0.02593449
-0.0003621 0.07153994 -0.02632491
-0.0303015 0.05640694 -0.01015631
-0.0452051 0.041748940000000005 -0.01638541
-0.0110807 0.00052264 -0.03175731
0.043925700000000005 0.00220044 -0.03186851
-0.05533350000000001 -0.0053501600000000005 0.02307509
-0.0580064 0.03736894 0.03993579
-0.0438706 -0.055065260000000005 -0.007720510000000001
-0.0441314 -0.05488976 -0.00611911
-0.0437777 -0.054786060000000004 -0.00517281
-0.0442934 -0.054646059999999996 -0.00317251
-0.044262100000000006 -0.05439646 -0.0018957099999999999
-0.0437147 -0.05433206 -0.00112851
-0.0430173 -0.05430386 -0.00039551
-0.0422681 -0.054309659999999996 0.00029019
-0.0415064 -0.05428316 0.0009398900000000001
-0.04075719999999999 -0.05429316 0.0016017899999999999
-0.0401035 -0.054279060000000004 0.00236489
-0.0395856 -0.05422006 0.00324609
-0.039016 -0.05419686 0.004104689999999999
-0.0382371 -0.054181160000000006 0.00474189
-0.0374412 -0.05417316 0.00536269
-0.0365799 -0.05416376 0.00592079
-0.0357818 -0.054164659999999996 0.00653779
-0.034912 -0.05416456 0.00708249
-0.034180100000000005 -0.05417466 0.007758490000000001
-0.0333808 -0.054177460000000004 0.00837529
-0.032595 -0.05416266 0.00900809
-0.049978 0.00969394 0.02586869
-0.048354 0.00027884 0.03005019
-0.0467903 0.00030994000000000003 0.03130689
-0.05938570000000001 0.04540894 0.03259179
-0.0376753 -0.052806360000000004 0.02130099
-0.0375434 -0.05261446 0.02230509
-0.0638002 0.04917694 0.01860629
-0.0380531 -0.05232436 0.02574089
-0.0378364 -0.05220876 0.026876289999999997
-0.0374728 -0.052045459999999995 0.027844690000000002
-0.037074600000000006 -0.052052360000000006 0.02889579
-0.0366123 -0.051996060000000004 0.02985119
-0.0360964 -0.051942959999999996 0.03073749
-0.0356117 -0.051899860000000006 0.031682890000000005
-0.0351394 -0.05181686 0.03260109
-0.0345846 -0.051782260000000004 0.033464890000000004
-0.033886400000000004 -0.05175246 0.03418609
-0.0330146 -0.05175086 0.03473769
-0.0319769 -0.05176856 0.03513699
-0.0519619 0.00153914 0.02654259
-0.0511128 0.0015509400000000002 0.02711249
-0.0632101 0.03711194 0.03098379
-0.049241900000000005 0.06798694000000001 -0.02604571
0.0005596 -0.02013716 0.03707899
-0.0531555 0.03284394 -0.014678910000000002
-0.044371900000000006 -0.017489360000000002 0.029464290000000004
-0.055886899999999996 0.04949694 0.03182009
-0.028756499999999997 -0.04692946 0.029779390000000003
0.0017475 -0.01700216 0.04285799
-0.0503376 0.0015691400000000001 0.02775289
-0.0122091 -0.05317406 0.03264839
-0.0116393 -0.053193460000000005 0.03331369
-0.0110025 -0.05314546 0.03406519
-0.0105277 -0.05310616 0.03496219
-0.0099165 -0.05307056 0.03577049
-0.009228 -0.05304226 0.036493790000000005
-0.0085433 -0.052974059999999996 0.03711519
-0.0078983 -0.05300946 0.038008690000000005
-0.0074621 -0.052943660000000003 0.03897499
-0.0069013 -0.05290886 0.039839690000000004
-0.0062221 -0.052870860000000006 0.04057409
-0.0054597 -0.05284486 0.041241190000000004
-0.0046467999999999995 -0.05284786 0.041842990000000004
-0.0035585 -0.05291196 0.04214639
-0.0026124000000000004 -0.05291766 0.042624089999999996
-0.0018182 -0.05291126 0.043246190000000004
-0.000979 -0.05288276 0.04385439
-8.7e-05 -0.05289966 0.04437409
0.00096 -0.052931160000000005 0.04478459
0.0020993 -0.05298316 0.045008290000000006
-0.0496362 0.00158864 0.02847239
-0.060484 0.037266940000000005 0.03675479
-0.0489039 0.0015986400000000001 0.02914659
-0.057605 0.030555940000000004 0.041158190000000004
-0.059100400000000004 0.04269894 0.035218189999999996
-0.0519257 0.07900694 -0.054810109999999995
-0.044134700000000006 0.00848394 -0.022124210000000002
0.0022489000000000003 -0.01697666 0.04375779
-0.0013497000000000001 -0.01736656 0.03605469
-0.058105399999999995 -0.00966776 0.01748699
-0.0593406 0.00792394 0.015361689999999999
-0.0456788 -0.013285560000000002 0.03061979
-0.0507703 0.06650794 -0.028665509999999998
-0.043079900000000004 -0.0029363600000000003 -0.02523951
-0.0649804 0.03033394 0.03293999
-0.048135000000000004 0.00161884 0.029792990000000002
-0.0546823 0.01081194 0.020521289999999998
-0.0474103 0.0016317400000000002 0.030473089999999998
-0.0465761 0.0016541400000000001 0.03106169
-0.0457071 0.00166404 0.03160699
-0.0448182 0.00166054 0.03211539
-0.027385600000000003 -0.04696386 0.03031069
-0.028818299999999998 0.06436494 -0.0025684099999999997
-0.0630636 0.03177794 0.03523599
-0.059210399999999996 0.03188694 0.039885290000000004
-0.0606528 0.02376694 0.03875779
-0.04331000000000001 -0.05367496 -0.00687781
-0.0431491 -0.05351636 -0.00577691
-0.0427928 -0.05334606 -0.00492261
-0.043331400000000006 -0.053251660000000006 -0.0028106100000000003
-0.0431692 -0.053033859999999995 -0.00169801
-0.0424822 -0.05299736 -0.0009661100000000001
-0.041835699999999997 -0.05298466 -0.00018051000000000002
-0.0411015 -0.05292906000000001 0.00050019
-0.040364699999999996 -0.05293506 0.00117449
-0.0396053 -0.05295736 0.00183369
-0.038995300000000004 -0.05292066 0.00262329
-0.038286099999999997 -0.05289136 0.00334389
-0.037487 -0.052890360000000004 0.00395759
-0.036692300000000004 -0.05288786 0.0045804899999999996
-0.0359 -0.05288366 0.00520199
-0.0350212 -0.052890059999999996 0.00573959
-0.0341474 -0.05289236 0.00628259
-0.0333481 -0.05290226 0.00689029
-0.0326119 -0.05293066 0.007561989999999999
-0.0317482 -0.05291726 0.00811939
-0.0493506 0.07217094 -0.03455321
-0.04530820000000001 -0.014661360000000002 0.030288990000000002
-0.045927100000000005 0.00031984 0.03185699
-0.0450509 0.00032534 0.032379790000000006
-0.059583199999999996 -0.005554160000000001 0.01744379
-0.0608536 0.00517994 0.01409519
-0.0349596 -0.02822856 0.02535839
0.0027842 -0.01841486 0.04326779
-0.0501321 0.07074094 -0.03372431
-0.0603073 -0.00701126 0.015385890000000001
-0.0365285 -0.05077976 0.02834609
-0.036109300000000004 -0.05069756 0.02932039
-0.035633 -0.05065976 0.03026589
-0.0351272 -0.05059106 0.03115649
-0.0346109 -0.050533060000000005 0.03204369
-0.0340102 -0.05048146 0.03285669
-0.0333636 -0.05047236 0.03362129
-0.0325655 -0.050473460000000005 0.03423269
-0.031542 -0.05047646 0.03463759
-0.054957900000000004 0.00012054000000000001 0.02393639
-0.056470700000000006 -0.00811356 0.02146649
-0.0553229 -0.00803616 0.023170890000000003
-0.0580971 -0.0027241599999999998 0.02010409
-0.046741700000000004 0.05339394000000001 -0.03782451
-0.0465152 0.05349894 -0.039328310000000005
-0.009057800000000001 -0.00657916 -0.03312511
-0.0517319 0.04959794 0.03471569
-0.048146800000000003 0.00562094 0.028270490000000002
0.012885200000000001 0.00926794 -0.03194811
-0.0569487 4.6439999999999996e-05 0.02170279
-0.0615454 0.05464194 0.01757169
-0.011207 -0.05187636 0.03282409
-0.0106243 -0.05182146000000001 0.03364959
-0.0101161 -0.051765860000000004 0.03451949
-0.009500100000000001 -0.05172446 0.035322490000000005
-0.0089255 -0.05165936 0.036150890000000005
-0.008128 -0.05170006 0.03678179
-0.0074349 -0.051667660000000004 0.03749049
-0.006939300000000001 -0.05163696 0.03842939
-0.0063563000000000005 -0.05157616 0.03925239
-0.0057204 -0.051553760000000004 0.04003649
-0.0049475000000000005 -0.051529160000000004 0.04068839
-0.0041437 -0.05152856 0.04130179
-0.0031347000000000002 -0.051518360000000006 0.04173899
-0.0020547 -0.05158356000000001 0.04206229
-0.0567955 -0.00267556 0.02162279
-0.053358499999999996 -0.01063496 0.02550809
-0.0598069 0.023775940000000002 0.03935439
0.0053284 -0.00457026 0.044540090000000004
-0.0140445 -0.00672136 -0.03142601
-0.0003375 -0.01578456 0.03924619
-0.023647200000000004 0.06871994000000001 -0.00501591
-0.0568283 0.030567940000000002 0.04180169
-0.0583805 0.030539939999999998 0.04051819
-0.05909880000000001 0.03052094 0.03982069
0.0029438 -0.01696006 0.044479689999999995
-0.054781899999999994 -0.00395716 0.023898990000000002
